2.491940e-01 -6.282220e-02 2.300690e-02
2.490500e-01 -7.585010e-02 7.554400e-02
2.669940e-01 -8.660490e-02 1.643370e-01
2.489050e-01 -2.077200e-01 -3.046180e-04
2.489010e-01 -1.068030e-01 -3.582290e-02
2.771620e-01 -2.184670e-01 1.496220e-01
2.487820e-01 -6.952760e-02 5.567030e-02
2.487820e-01 -1.612120e-01 -2.945790e-02
2.487220e-01 -6.440070e-02 4.139580e-02
3.162320e-01 -1.841760e-01 2.261420e-01
2.486290e-01 -2.343550e-01 8.319820e-02
2.485090e-01 -2.326620e-01 2.103550e-03
2.780820e-01 -1.062590e-01 1.903730e-01
2.483990e-01 -6.023530e-02 1.704180e-02
2.483610e-01 -6.209040e-02 3.497540e-02
3.024430e-01 -2.057630e-01 1.964100e-01
2.482500e-01 -1.268130e-01 -4.035840e-02
2.481180e-01 -5.889930e-02 2.884440e-02
2.481180e-01 -6.127350e-02 7.396400e-03
2.481050e-01 -1.928420e-01 -8.733190e-03
2.479730e-01 -7.224630e-02 1.190570e-01
2.478460e-01 -1.484650e-01 -3.547830e-02
2.477100e-01 -1.415560e-01 -3.844810e-02
3.143140e-01 -1.921550e-01 2.228140e-01
3.060050e-01 -2.033480e-01 2.050720e-01
2.475010e-01 -5.815480e-02 3.593270e-02
2.474930e-01 -2.032610e-01 -2.729800e-03
2.474710e-01 -6.369440e-02 -2.210730e-03
2.473690e-01 -1.127980e-01 -3.946070e-02
2.472120e-01 -1.976200e-01 -6.661150e-03
3.141350e-01 -1.764140e-01 2.304050e-01
2.469440e-01 -2.464770e-01 2.928260e-02
2.468840e-01 -2.243480e-01 1.020640e-01
2.468670e-01 -6.767250e-02 -9.388410e-03
2.466710e-01 -2.470470e-01 3.447760e-02
2.466670e-01 -6.373690e-02 4.854370e-02
2.707910e-01 -9.681010e-02 1.813090e-01
2.463230e-01 -2.423790e-01 6.922150e-02
2.463060e-01 -2.426050e-01 1.182130e-02
2.462800e-01 -2.297810e-01 -2.138400e-03
2.462710e-01 -7.266330e-02 -1.588540e-02
2.462670e-01 -7.590540e-02 9.149490e-02
2.862540e-01 -2.150910e-01 1.733030e-01
2.461910e-01 -5.722720e-02 4.333160e-02
2.930170e-01 -2.118930e-01 1.857470e-01
2.458460e-01 -1.754360e-01 -2.680720e-02
2.457690e-01 -1.187550e-01 -4.250700e-02
2.457310e-01 -7.218250e-02 7.188070e-02
2.457010e-01 -1.891740e-01 -1.774470e-02
2.992430e-01 -1.456450e-01 2.211850e-01
3.036890e-01 -1.538500e-01 2.257630e-01
2.453870e-01 -7.137840e-02 1.292130e-01
2.453350e-01 -2.366180e-01 4.271920e-04
2.452970e-01 -9.460480e-02 -3.341470e-02
2.615100e-01 -2.273370e-01 1.257750e-01
2.452040e-01 -1.707600e-01 -2.984080e-02
2.450930e-01 -6.042250e-02 4.921160e-02
2.449570e-01 -2.457450e-01 5.906130e-02
2.449230e-01 -2.150510e-01 -5.874030e-03
2.448720e-01 -7.471830e-02 8.401090e-02
2.936080e-01 -1.374530e-01 2.166400e-01
2.851760e-01 -1.236030e-01 2.072300e-01
2.678190e-01 -2.237970e-01 1.416200e-01
3.087780e-01 -1.666930e-01 2.318880e-01
2.446550e-01 -1.063690e-01 -4.004780e-02
2.446330e-01 -2.479740e-01 4.311890e-02
2.445440e-01 -7.260370e-02 1.370930e-01
2.444380e-01 -2.460470e-01 1.996050e-02
2.443230e-01 -6.345190e-02 5.538950e-02
2.442040e-01 -7.323340e-02 1.018680e-01
2.441820e-01 -2.335850e-01 9.125670e-02
2.441650e-01 -1.342800e-01 -4.448970e-02
2.440460e-01 -5.721020e-02 5.101560e-02
2.440380e-01 -6.287320e-02 -1.203060e-02
2.438250e-01 -1.575870e-01 -3.674190e-02
2.438120e-01 -1.831880e-01 -2.530100e-02
2.632730e-01 -8.823940e-02 1.716690e-01
2.778380e-01 -2.192560e-01 1.643200e-01
2.436250e-01 -2.234630e-01 -7.103640e-03
2.584840e-01 -8.072690e-02 1.584930e-01
2.432890e-01 -1.267490e-01 -4.585120e-02
2.431660e-01 -1.957480e-01 -1.615770e-02
2.431570e-01 -1.432280e-01 -4.342180e-02
2.430000e-01 -7.137410e-02 1.093860e-01
2.428980e-01 -6.808950e-02 6.783880e-02
2.757470e-01 -1.114030e-01 1.987290e-01
2.426890e-01 -2.034870e-01 -1.137540e-02
2.425870e-01 -2.415500e-01 2.592840e-03
3.111800e-01 -1.871690e-01 2.338610e-01
2.421360e-01 -6.822990e-02 -1.882540e-02
2.941480e-01 -2.114060e-01 1.977230e-01
3.082640e-01 -1.978230e-01 2.260030e-01
2.416760e-01 -2.391500e-01 8.428740e-02
2.416340e-01 -7.476940e-02 -2.387570e-02
2.416040e-01 -5.715920e-02 5.823160e-02
2.415450e-01 -6.279660e-02 6.189070e-02
2.415360e-01 -2.286540e-01 1.030120e-01
3.093470e-01 -1.811700e-01 2.366700e-01
2.412470e-01 -2.484720e-01 5.329620e-02
3.068440e-01 -1.723190e-01 2.367740e-01
2.997550e-01 -2.073770e-01 2.106550e-01
2.409280e-01 -2.367030e-01 -5.652780e-03
2.831900e-01 -2.169080e-01 1.811380e-01
2.679630e-01 -1.013690e-01 1.903020e-01
2.405490e-01 -6.936590e-02 1.210740e-01
3.014570e-01 -1.603750e-01 2.330360e-01
2.402040e-01 -2.496460e-01 3.359260e-02
2.835190e-01 -1.285150e-01 2.126470e-01
2.558640e-01 -8.112590e-02 1.621240e-01
2.944420e-01 -1.474600e-01 2.257950e-01
2.398890e-01 -1.624040e-01 -3.900970e-02
2.398720e-01 -1.145380e-01 -4.687660e-02
2.397360e-01 -9.754060e-02 -4.019670e-02
2.396720e-01 -2.121710e-01 -1.384310e-02
2.396640e-01 -6.942550e-02 1.147470e-01
2.396640e-01 -2.465020e-01 1.143410e-02
2.396510e-01 -1.768010e-01 -3.311270e-02
2.396510e-01 -1.971010e-01 -2.065060e-02
2.396300e-01 -6.963820e-02 7.928820e-02
2.395620e-01 -2.462550e-01 6.756220e-02
2.394980e-01 -1.529280e-01 -4.326440e-02
2.390560e-01 -1.225710e-01 -4.901670e-02
2.390210e-01 -2.301680e-01 -1.174130e-02
2.389450e-01 -1.045860e-01 -4.414940e-02
2.388900e-01 -5.675070e-02 6.486900e-02
2.387960e-01 -2.485700e-01 1.981160e-02
2.584250e-01 -2.284560e-01 1.375990e-01
2.387530e-01 -2.214550e-01 -1.397070e-02
2.387410e-01 -6.368590e-02 -2.201640e-02
2.386980e-01 -7.006790e-02 -2.464150e-02
2.386470e-01 -2.031470e-01 -1.851480e-02
2.386390e-01 -2.454640e-01 5.494550e-03
2.386000e-01 -7.899430e-02 -2.995990e-02
2.385530e-01 -1.434150e-01 -4.771060e-02
2.757510e-01 -1.185870e-01 2.060470e-01
2.383450e-01 -6.171170e-02 6.812810e-02
2.383410e-01 -6.867660e-02 1.258640e-01
2.604680e-01 -9.260250e-02 1.814400e-01
2.679480e-01 -2.235990e-01 1.591240e-01
2.381660e-01 -2.337850e-01 9.893210e-02
2.380810e-01 -6.918720e-02 1.319950e-01
2.377030e-01 -2.418180e-01 -4.427430e-03
2.376730e-01 -1.321100e-01 -5.038680e-02
2.753140e-01 -2.201900e-01 1.747530e-01
2.372980e-01 -2.507360e-01 4.635670e-02
2.849190e-01 -1.362990e-01 2.189360e-01
2.371320e-01 -1.928540e-01 -2.710500e-02
2.370810e-01 -7.073590e-02 9.236710e-02
2.370690e-01 -6.948930e-02 1.050120e-01
2.370260e-01 -7.054870e-02 1.401180e-01
2.369920e-01 -2.436000e-01 8.030080e-02
2.369030e-01 -8.624010e-02 -3.616750e-02
2.865500e-01 -2.144520e-01 1.978680e-01
2.365070e-01 -1.113340e-01 -4.836580e-02
2.673640e-01 -1.080750e-01 1.981890e-01
2.364770e-01 -6.945950e-02 8.663180e-02
3.036600e-01 -1.830720e-01 2.401280e-01
3.015060e-01 -1.748020e-01 2.404890e-01
2.358690e-01 -5.529980e-02 7.119570e-02
2.988130e-01 -1.679500e-01 2.388830e-01
3.031510e-01 -1.936730e-01 2.354260e-01
3.008330e-01 -2.006840e-01 2.283230e-01
2.947440e-01 -2.081980e-01 2.158520e-01
2.352650e-01 -1.743290e-01 -3.860550e-02
2.760560e-01 -1.250400e-01 2.113600e-01
2.351110e-01 -1.661010e-01 -4.212410e-02
2.348520e-01 -6.875750e-02 1.354970e-01
2.348310e-01 -7.839010e-02 -3.341470e-02
2.347750e-01 -2.446170e-01 -3.465860e-03
2.527190e-01 -8.504610e-02 1.727140e-01
2.346730e-01 -2.370610e-01 -1.359630e-02
2.346090e-01 -6.401350e-02 7.793940e-02
2.345710e-01 -6.016300e-02 7.421230e-02
2.343460e-01 -2.497570e-01 6.160560e-02
2.343330e-01 -6.365610e-02 -2.835590e-02
2.917200e-01 -1.558320e-01 2.335390e-01
2.341120e-01 -1.263320e-01 -5.276510e-02
2.340140e-01 -2.047510e-01 -2.521590e-02
2.693200e-01 -1.160650e-01 2.049640e-01
2.339330e-01 -9.364750e-02 -4.285590e-02
2.338520e-01 -2.326150e-01 1.057480e-01
2.338480e-01 -1.583740e-01 -4.618310e-02
2.591280e-01 -9.856140e-02 1.898260e-01
2.335970e-01 -6.846390e-02 9.978310e-02
2.335460e-01 -2.419110e-01 -9.805380e-03
2.335410e-01 -2.376230e-01 9.759620e-02
2.334010e-01 -1.901700e-01 -3.299350e-02
2.480720e-01 -7.924050e-02 1.636500e-01
2.331120e-01 -2.467570e-01 7.627160e-02
2.758610e-01 -2.186450e-01 1.879030e-01
2.328100e-01 -2.202250e-01 -2.282480e-02
2.328050e-01 -2.519910e-01 3.177590e-02
2.327880e-01 -2.415500e-01 9.046950e-02
2.327800e-01 -6.583450e-02 8.514690e-02
2.327290e-01 -1.985730e-01 -2.988760e-02
2.486200e-01 -2.329150e-01 1.322200e-01
2.326310e-01 -2.486120e-01 6.995330e-02
2.325370e-01 -2.511990e-01 2.198580e-02
2.324480e-01 -1.518310e-01 -4.955710e-02
2.324270e-01 -1.456530e-01 -5.149720e-02
2.579270e-01 -2.272480e-01 1.543420e-01
2.323630e-01 -1.203200e-01 -5.302040e-02
2.323120e-01 -6.990200e-02 -3.210850e-02
2.322820e-01 -2.293430e-01 -2.084630e-02
2.962620e-01 -1.757150e-01 2.419220e-01
2.321760e-01 -2.493870e-01 9.200390e-03
2.320310e-01 -6.655350e-02 1.180570e-01
2.320220e-01 -2.474420e-01 8.256040e-05
2.319460e-01 -6.690670e-02 1.088580e-01
2.317590e-01 -1.837920e-01 -3.790350e-02
2.831220e-01 -1.447350e-01 2.265230e-01
2.974370e-01 -1.907590e-01 2.390690e-01
2.312780e-01 -1.340930e-01 -5.434790e-02
2.607660e-01 -1.070620e-01 1.979810e-01
2.308820e-01 -1.400370e-01 -5.379480e-02
2.308270e-01 -1.028160e-01 -4.920400e-02
2.307420e-01 -2.529350e-01 4.305510e-02
2.306400e-01 -6.229460e-02 -3.400610e-02
2.304230e-01 -5.832490e-02 8.053900e-02
2.303380e-01 -6.639610e-02 1.277150e-01
2.511810e-01 -9.073160e-02 1.818490e-01
2.905480e-01 -1.661040e-01 2.398690e-01
2.944160e-01 -1.982890e-01 2.336240e-01
2.802440e-01 -2.147200e-01 2.035410e-01
2.656920e-01 -2.225670e-01 1.762710e-01
2.946080e-01 -1.847730e-01 2.415840e-01
2.296740e-01 -7.651810e-02 -3.738440e-02
2.296190e-01 -2.059330e-01 -3.168730e-02
2.734870e-01 -1.316780e-01 2.168400e-01
2.655760e-01 -1.182280e-01 2.067450e-01
2.590440e-01 -2.256440e-01 1.648920e-01
2.291930e-01 -2.365670e-01 -2.051870e-02
2.290060e-01 -2.526540e-01 5.511720e-02
2.290020e-01 -6.558770e-02 9.577940e-02
2.289120e-01 -1.929740e-01 -3.714190e-02
2.901950e-01 -2.036290e-01 2.273400e-01
2.288480e-01 -2.328700e-01 -2.347570e-02
2.284190e-01 -2.512720e-01 1.206810e-02
2.283210e-01 -1.717000e-01 -4.594910e-02
2.889340e-01 -1.709950e-01 2.416710e-01
2.280830e-01 -9.340500e-02 -4.711060e-02
2.280360e-01 -2.464510e-01 -8.443870e-03
2.429090e-01 -7.941660e-02 1.667830e-01
2.277980e-01 -2.445110e-01 8.929100e-02
2.277550e-01 -6.951910e-02 1.450960e-01
2.277420e-01 -8.224920e-02 -4.186880e-02
2.275930e-01 -6.853200e-02 -3.725250e-02
2.274910e-01 -2.512040e-01 6.665590e-02
2.274100e-01 -6.512400e-02 1.037870e-01
2.274020e-01 -1.332930e-01 -5.651780e-02
2.273850e-01 -2.142300e-01 -3.250000e-02
2.272910e-01 -6.036720e-02 8.705730e-02
2.272610e-01 -1.595740e-01 -5.077390e-02
2.513820e-01 -9.759780e-02 1.896170e-01
2.906200e-01 -1.920530e-01 2.385890e-01
2.848840e-01 -2.070790e-01 2.222660e-01
2.267640e-01 -6.463470e-02 1.127390e-01
2.267130e-01 -1.663390e-01 -4.906780e-02
2.817140e-01 -1.564010e-01 2.358190e-01
2.265890e-01 -2.327040e-01 1.130320e-01
2.265850e-01 -1.797410e-01 -4.454080e-02
2.264870e-01 -2.015640e-01 -3.751630e-02
2.264870e-01 -2.535010e-01 2.518960e-02
2.263510e-01 -6.690670e-02 1.378240e-01
2.262490e-01 -1.084710e-01 -5.378630e-02
2.261420e-01 -2.475790e-01 8.263240e-02
2.259250e-01 -2.398090e-01 1.014420e-01
2.258830e-01 -5.632100e-02 8.695510e-02
2.255340e-01 -1.877490e-01 -4.285170e-02
2.431560e-01 -8.527070e-02 1.764150e-01
2.254450e-01 -1.486270e-01 -5.494350e-02
2.253980e-01 -2.367800e-01 -2.491380e-02
2.544780e-01 -1.071090e-01 1.982300e-01
2.252700e-01 -2.530250e-01 6.035470e-02
2.252580e-01 -2.498290e-01 -1.474660e-03
2.252110e-01 -2.429280e-01 -1.822970e-02
2.251300e-01 -1.134360e-01 -5.564560e-02
2.856820e-01 -1.757970e-01 2.422390e-01
2.667650e-01 -2.194340e-01 1.910620e-01
2.250530e-01 -6.521330e-02 1.307570e-01
2.250280e-01 -2.543900e-01 3.276300e-02
2.246700e-01 -8.531250e-02 -4.573640e-02
2.246360e-01 -7.451410e-02 -4.147320e-02
2.813970e-01 -1.647310e-01 2.399250e-01
2.240450e-01 -2.468590e-01 -1.274960e-02
2.444770e-01 -9.112850e-02 1.833950e-01
2.238530e-01 -1.261620e-01 -5.808780e-02
2.386490e-01 -7.962630e-02 1.691370e-01
2.609320e-01 -1.220440e-01 2.102470e-01
2.433050e-01 -2.321320e-01 1.475210e-01
2.843230e-01 -1.815650e-01 2.416910e-01
2.233770e-01 -6.707690e-02 -4.250280e-02
2.376500e-01 -2.360490e-01 1.339690e-01
2.493870e-01 -2.280640e-01 1.623090e-01
2.230150e-01 -2.507950e-01 7.493560e-02
2.229940e-01 -9.580890e-02 -5.149300e-02
2.228920e-01 -6.380080e-02 1.242990e-01
2.228580e-01 -2.141790e-01 -3.875860e-02
2.717700e-01 -2.140680e-01 2.074780e-01
2.225300e-01 -1.173040e-01 -5.771340e-02
2.755000e-01 -1.564930e-01 2.362850e-01
2.665560e-01 -1.357100e-01 2.212100e-01
2.221520e-01 -2.428770e-01 9.847260e-02
2.220200e-01 -6.235420e-02 1.071560e-01
2.219810e-01 -1.797330e-01 -4.883380e-02
2.219520e-01 -6.289020e-02 1.164740e-01
2.218490e-01 -1.925100e-01 -4.588950e-02
2.805640e-01 -2.005610e-01 2.307510e-01
2.217770e-01 -2.553730e-01 3.939180e-02
2.822160e-01 -1.864300e-01 2.400530e-01
2.217130e-01 -1.545920e-01 -5.567960e-02
2.216450e-01 -2.351210e-01 1.134020e-01
2.215130e-01 -2.083590e-01 -4.239640e-02
2.212750e-01 -2.296620e-01 -3.464860e-02
2.212620e-01 -6.654500e-02 1.413690e-01
2.212370e-01 -2.230420e-01 -3.766940e-02
2.212200e-01 -5.426170e-02 9.345210e-02
2.212200e-01 -8.056850e-02 -4.631500e-02
2.210370e-01 -2.433410e-01 -2.302900e-02
2.209990e-01 -6.020550e-02 1.004380e-01
2.209470e-01 -2.529310e-01 6.736920e-03
2.441010e-01 -9.721870e-02 1.900460e-01
2.208450e-01 -2.553090e-01 4.921160e-02
2.207390e-01 -2.495870e-01 -9.741560e-03
2.202330e-01 -2.472000e-01 9.009090e-02
2.201600e-01 -1.640630e-01 -5.448400e-02
2.201350e-01 -1.001830e-01 -5.483290e-02
2.201180e-01 -2.354910e-01 -3.278930e-02
2.200580e-01 -2.022870e-01 -4.585550e-02
2.196240e-01 -2.542410e-01 1.302110e-02
2.522510e-01 -2.240740e-01 1.778330e-01
2.193820e-01 -7.297390e-02 -4.620860e-02
2.192710e-01 -1.854730e-01 -5.008890e-02
2.191180e-01 -1.442910e-01 -5.920680e-02
2.713960e-01 -1.596800e-01 2.374280e-01
2.468480e-01 -1.074620e-01 1.998200e-01
2.741200e-01 -1.693720e-01 2.402490e-01
2.766230e-01 -1.939800e-01 2.350290e-01
2.183610e-01 -6.370290e-02 1.324980e-01
2.182800e-01 -1.768360e-01 -5.276090e-02
2.370920e-01 -8.921490e-02 1.829130e-01
2.181140e-01 -1.199030e-01 -6.019390e-02
2.543570e-01 -1.236210e-01 2.128720e-01
2.179560e-01 -2.429240e-01 -2.846650e-02
2.179390e-01 -6.907660e-02 1.497760e-01
2.175740e-01 -1.378500e-01 -6.078530e-02
2.332460e-01 -8.295560e-02 1.761470e-01
2.172460e-01 -6.142240e-02 1.199210e-01
2.683860e-01 -2.085240e-01 2.179880e-01
2.170120e-01 -2.486760e-01 -1.807650e-02
2.169990e-01 -6.038850e-02 1.123640e-01
2.564800e-01 -2.190600e-01 1.933640e-01
2.169440e-01 -5.593810e-02 1.011620e-01
2.168880e-01 -8.625710e-02 -5.153130e-02
2.164760e-01 -2.218420e-01 -4.485990e-02
2.164330e-01 -2.392730e-01 -3.555490e-02
2.725320e-01 -1.783900e-01 2.396620e-01
2.162500e-01 -2.000070e-01 -5.071010e-02
2.161820e-01 -7.837310e-02 -4.964640e-02
2.161570e-01 -6.591530e-02 1.427050e-01
2.161140e-01 -2.536410e-01 7.102550e-02
2.158670e-01 -2.462300e-01 -2.630510e-02
2.157910e-01 -2.566960e-01 4.337420e-02
2.157230e-01 -2.330950e-01 -4.123490e-02
2.156800e-01 -1.095180e-01 -5.976840e-02
2.156590e-01 -2.393970e-01 1.104200e-01
2.301740e-01 -2.365580e-01 1.390160e-01
2.696700e-01 -2.015780e-01 2.267870e-01
2.155700e-01 -2.564880e-01 2.527890e-02
2.153190e-01 -2.346230e-01 1.186270e-01
2.605640e-01 -2.136590e-01 2.068610e-01
2.150670e-01 -2.569090e-01 3.361820e-02
2.352970e-01 -2.319110e-01 1.543760e-01
2.149140e-01 -2.437190e-01 -3.282760e-02
2.147060e-01 -2.560750e-01 1.725880e-02
2.146720e-01 -2.460090e-01 9.770250e-02
2.146160e-01 -2.504500e-01 8.531280e-02
2.362150e-01 -9.647840e-02 1.916030e-01
2.145060e-01 -2.133490e-01 -4.977830e-02
2.144080e-01 -2.558330e-01 6.029520e-02
2.143230e-01 -7.129330e-02 -5.128880e-02
2.142850e-01 -2.528500e-01 7.675660e-02
2.142510e-01 -1.859020e-01 -5.439470e-02
2.142170e-01 -2.514760e-01 -1.331130e-02
2.141230e-01 -1.560680e-01 -5.991300e-02
2.647910e-01 -1.625460e-01 2.370650e-01
2.140120e-01 -2.276580e-01 -4.668090e-02
2.396970e-01 -2.277630e-01 1.674990e-01
2.688130e-01 -1.861460e-01 2.363310e-01
2.136120e-01 -6.084370e-02 1.246260e-01
2.135870e-01 -5.718040e-02 1.092630e-01
2.130250e-01 -2.374570e-01 -4.346010e-02
2.454070e-01 -2.227950e-01 1.820660e-01
2.129360e-01 -1.316680e-01 -6.323600e-02
2.129020e-01 -2.430430e-01 -3.831190e-02
2.459510e-01 -1.211090e-01 2.127220e-01
2.621100e-01 -2.065850e-01 2.184960e-01
2.126890e-01 -2.190080e-01 -5.101650e-02
2.536070e-01 -1.376990e-01 2.238960e-01
2.126420e-01 -1.770910e-01 -5.668370e-02
2.125230e-01 -9.898290e-02 -5.885790e-02
2.124470e-01 -2.492550e-01 -2.524140e-02
2.122040e-01 -1.227030e-01 -6.311260e-02
2.121790e-01 -5.858450e-02 1.164570e-01
2.121740e-01 -2.443110e-01 1.032170e-01
2.363380e-01 -1.041200e-01 2.001460e-01
2.117530e-01 -2.533350e-01 -8.877850e-03
2.116850e-01 -1.390490e-01 -6.369550e-02
2.116850e-01 -2.326660e-01 -4.919120e-02
2.116510e-01 -2.379710e-01 1.153720e-01
2.114770e-01 -7.216550e-02 -5.365010e-02
2.112720e-01 -4.919430e-02 1.065690e-01
2.617560e-01 -1.676580e-01 2.368190e-01
2.111700e-01 -1.960030e-01 -5.564980e-02
2.636420e-01 -1.957000e-01 2.291430e-01
2.336440e-01 -2.296040e-01 1.623630e-01
2.110550e-01 -2.062480e-01 -5.445850e-02
2.110340e-01 -8.792490e-02 -5.572640e-02
2.110340e-01 -2.244460e-01 -5.294380e-02
2.394200e-01 -1.133810e-01 2.079550e-01
2.551840e-01 -1.488760e-01 2.304070e-01
2.106510e-01 -1.684490e-01 -5.953010e-02
2.280360e-01 -8.888050e-02 1.855600e-01
2.105490e-01 -6.297530e-02 1.363570e-01
2.104770e-01 -7.252290e-02 1.585360e-01
2.103280e-01 -2.413960e-01 -4.668940e-02
2.102510e-01 -7.770940e-02 -5.400750e-02
2.100720e-01 -2.575090e-01 4.976050e-02
2.100510e-01 -5.265340e-02 1.096580e-01
2.099530e-01 -6.531540e-02 1.435980e-01
2.098940e-01 -1.022720e-01 -6.107030e-02
2.097530e-01 -2.116430e-01 -5.500740e-02
2.097490e-01 -2.463660e-01 -4.164330e-02
2.609020e-01 -1.744230e-01 2.361380e-01
2.517520e-01 -2.128480e-01 2.052290e-01
2.096680e-01 -1.496990e-01 -6.337210e-02
2.095920e-01 -2.514330e-01 -2.307150e-02
2.095490e-01 -2.494040e-01 -3.191280e-02
2.088980e-01 -2.549390e-01 -4.444450e-03
2.086260e-01 -2.570580e-01 5.854650e-02
2.086220e-01 -5.843560e-02 1.226140e-01
2.421800e-01 -2.200640e-01 1.879490e-01
2.085190e-01 -8.282780e-02 -5.576050e-02
2.085190e-01 -2.169400e-01 -5.635190e-02
2.276840e-01 -9.606150e-02 1.943990e-01
2.077410e-01 -2.497650e-01 -3.843950e-02
2.337820e-01 -2.258390e-01 1.724040e-01
2.076130e-01 -2.561730e-01 6.684310e-02
2.076090e-01 -1.107090e-01 -6.378480e-02
2.074220e-01 -2.424090e-01 1.096920e-01
2.073110e-01 -6.077140e-02 1.313400e-01
2.072430e-01 -2.531990e-01 8.162830e-02
2.072180e-01 -2.548880e-01 7.439100e-02
2.516990e-01 -1.550470e-01 2.315940e-01
2.376480e-01 -1.208890e-01 2.137260e-01
2.069840e-01 -2.483440e-01 9.736640e-02
2.224760e-01 -2.348360e-01 1.472620e-01
2.571380e-01 -1.792850e-01 2.335190e-01
2.211030e-01 -8.254130e-02 1.788890e-01
2.067880e-01 -1.807290e-01 -5.967900e-02
2.067620e-01 -5.332990e-02 1.155250e-01
2.064810e-01 -2.503230e-01 -4.547680e-02
2.064390e-01 -2.334060e-01 1.253030e-01
2.277930e-01 -1.006410e-01 1.993100e-01
2.539580e-01 -1.996340e-01 2.215880e-01
2.061790e-01 -4.665850e-02 1.128750e-01
2.060600e-01 -1.999730e-01 -5.864510e-02
2.059580e-01 -2.536460e-01 -1.998260e-02
2.557120e-01 -1.858110e-01 2.307260e-01
2.456340e-01 -1.434730e-01 2.263610e-01
2.058390e-01 -1.894000e-01 -5.936840e-02
2.058180e-01 -2.580110e-01 1.710560e-02
2.057410e-01 -6.876600e-02 1.524950e-01
2.056560e-01 -1.683900e-01 -6.220630e-02
2.055500e-01 -5.860580e-02 1.266860e-01
2.054560e-01 -1.208310e-01 -6.581860e-02
2.265410e-01 -2.292950e-01 1.626170e-01
2.541320e-01 -1.920740e-01 2.268250e-01
2.050010e-01 -8.936300e-02 -5.953440e-02
2.282750e-01 -1.061050e-01 2.041470e-01
2.050010e-01 -2.089930e-01 -5.921530e-02
2.047240e-01 -2.587940e-01 2.832960e-02
2.046860e-01 -2.588710e-01 3.651560e-02
2.041370e-01 -7.749240e-02 -5.856000e-02
2.202720e-01 -8.913760e-02 1.884170e-01
2.039500e-01 -6.409010e-02 1.414580e-01
2.037240e-01 -1.293320e-01 -6.727370e-02
2.391990e-01 -2.149670e-01 1.958520e-01
2.284680e-01 -1.112300e-01 2.080610e-01
2.034950e-01 -5.537220e-02 1.221970e-01
2.496830e-01 -1.695010e-01 2.315140e-01
2.360070e-01 -1.296770e-01 2.188830e-01
2.478220e-01 -1.628480e-01 2.308390e-01
2.431250e-01 -2.089570e-01 2.063440e-01
2.029970e-01 -2.552670e-01 -1.581730e-02
2.029540e-01 -1.599230e-01 -6.487400e-02
2.028310e-01 -2.153020e-01 -6.306580e-02
2.027630e-01 -2.541730e-01 -2.936000e-02
2.027460e-01 -6.968080e-02 -6.200640e-02
2.025840e-01 -2.398390e-01 1.162530e-01
2.024780e-01 -1.427720e-01 -6.752050e-02
2.024520e-01 -8.370430e-02 -5.959390e-02
2.024050e-01 -2.527350e-01 8.688710e-02
2.316830e-01 -2.203390e-01 1.833550e-01
2.021290e-01 -2.564410e-01 -6.946210e-03
2.020990e-01 -2.590620e-01 4.462930e-02
2.019290e-01 -2.455230e-01 1.061010e-01
2.013970e-01 -2.550500e-01 -3.583570e-02
2.169690e-01 -2.332940e-01 1.513400e-01
2.012780e-01 -4.262510e-02 1.172440e-01
2.012310e-01 -2.558670e-01 -4.164330e-02
2.011550e-01 -1.832690e-01 -6.207020e-02
2.010400e-01 -1.029700e-01 -6.535910e-02
2.196730e-01 -9.773860e-02 1.981970e-01
2.009080e-01 -4.774350e-02 1.187040e-01
2.470370e-01 -1.828670e-01 2.272660e-01
2.006570e-01 -2.590490e-01 1.933080e-02
2.004230e-01 -2.562370e-01 7.354010e-02
2.389610e-01 -1.485300e-01 2.259190e-01
2.408480e-01 -2.043600e-01 2.099200e-01
2.215310e-01 -2.270640e-01 1.664300e-01
2.002020e-01 -7.221230e-02 1.603570e-01
2.000570e-01 -6.869370e-02 1.531240e-01
2.000020e-01 -6.043100e-02 1.330970e-01
1.999630e-01 -1.942460e-01 -6.217230e-02
1.999210e-01 -7.746690e-02 1.689820e-01
2.259210e-01 -1.172680e-01 2.119080e-01
1.998060e-01 -2.023080e-01 -6.249990e-02
1.996820e-01 -2.580030e-01 6.234590e-02
1.994530e-01 -1.158020e-01 -6.754600e-02
1.994230e-01 -9.186480e-02 -6.315940e-02
1.992190e-01 -2.560710e-01 -2.525000e-02
2.426890e-01 -1.937570e-01 2.193630e-01
1.989890e-01 -2.575770e-01 -1.810780e-03
1.988530e-01 -2.566670e-01 -1.377500e-02
1.986320e-01 -1.555190e-01 -6.724390e-02
1.985170e-01 -6.333700e-02 1.398160e-01
1.984660e-01 -2.588190e-01 1.151070e-02
1.981080e-01 -2.067590e-01 -6.490380e-02
1.980740e-01 -5.733790e-02 1.282090e-01
1.980020e-01 -2.567900e-01 -3.129160e-02
1.977380e-01 -2.591560e-01 5.297710e-02
1.974910e-01 -7.843690e-02 -6.281480e-02
2.293300e-01 -1.348970e-01 2.200490e-01
2.409660e-01 -1.764960e-01 2.254710e-01
1.973170e-01 -1.335270e-01 -6.963500e-02
1.971680e-01 -1.436020e-01 -6.925640e-02
2.178490e-01 -1.065920e-01 2.053980e-01
1.970700e-01 -2.391330e-01 1.192870e-01
1.969380e-01 -2.330950e-01 1.285020e-01
2.348110e-01 -2.036750e-01 2.068770e-01
1.967470e-01 -2.098310e-01 -6.755880e-02
2.254530e-01 -2.166200e-01 1.860460e-01
1.965890e-01 -8.559340e-02 -6.308710e-02
1.965600e-01 -1.243450e-01 -6.936270e-02
2.116660e-01 -9.148350e-02 1.927860e-01
1.962830e-01 -6.651530e-02 1.475890e-01
1.961720e-01 -1.809460e-01 -6.440600e-02
2.228420e-01 -1.235390e-01 2.147520e-01
1.960110e-01 -2.572150e-01 -2.055700e-02
2.367370e-01 -1.643960e-01 2.250720e-01
2.121610e-01 -2.301560e-01 1.570030e-01
1.953940e-01 -2.598580e-01 2.218150e-02
1.952530e-01 -2.608570e-01 -4.174970e-02
1.951430e-01 -5.016870e-02 1.231920e-01
1.950280e-01 -4.073600e-02 1.212780e-01
2.327160e-01 -1.553040e-01 2.235470e-01
1.949000e-01 -2.591680e-01 -3.492090e-02
2.158680e-01 -2.243440e-01 1.689870e-01
2.355230e-01 -1.904060e-01 2.165930e-01
1.945430e-01 -7.210590e-02 -6.698860e-02
1.942450e-01 -2.483100e-01 1.026930e-01
1.941680e-01 -2.519610e-01 9.317130e-02
1.940280e-01 -1.027530e-01 -6.780550e-02
1.940150e-01 -9.378790e-02 -6.587390e-02
1.940150e-01 -2.603170e-01 3.389470e-02
2.109970e-01 -9.924270e-02 2.001320e-01
1.938370e-01 -2.576880e-01 -1.309430e-02
1.937340e-01 -2.602320e-01 4.236160e-02
1.936620e-01 -2.584580e-01 -2.810910e-02
1.936540e-01 -1.626630e-01 -6.785660e-02
1.933390e-01 -1.915870e-01 -6.510800e-02
1.933090e-01 -1.144060e-01 -6.933300e-02
1.931510e-01 -2.548160e-01 8.368750e-02
2.306110e-01 -1.975550e-01 2.089030e-01
1.926410e-01 -2.441020e-01 1.116110e-01
2.327960e-01 -1.812990e-01 2.186510e-01
2.145530e-01 -1.155060e-01 2.100780e-01
1.923470e-01 -1.512310e-01 -6.973720e-02
1.923350e-01 -6.921700e-02 1.543920e-01
1.921940e-01 -6.386460e-02 1.397820e-01
2.156240e-01 -2.192780e-01 1.765420e-01
2.211380e-01 -2.115150e-01 1.900460e-01
1.919390e-01 -7.372700e-02 1.641910e-01
1.918500e-01 -1.992370e-01 -6.670360e-02
1.918240e-01 -2.588880e-01 1.746150e-03
2.225170e-01 -1.395120e-01 2.186350e-01
1.916920e-01 -6.105220e-02 1.336210e-01
1.913130e-01 -1.215410e-01 -7.053700e-02
2.279100e-01 -1.589540e-01 2.207070e-01
1.912110e-01 -8.109190e-02 -6.632910e-02
2.059980e-01 -2.299710e-01 1.549910e-01
1.911650e-01 -7.597770e-02 1.678200e-01
1.910540e-01 -2.308620e-01 1.323150e-01
1.910160e-01 -2.580320e-01 6.881310e-02
1.909260e-01 -2.591980e-01 6.053770e-02
1.906160e-01 -2.611340e-01 -3.490810e-02
1.905430e-01 -8.151310e-02 1.753810e-01
1.904460e-01 -2.585220e-01 -2.193980e-02
1.903940e-01 -1.405980e-01 -7.121350e-02
1.903010e-01 -8.747820e-02 -6.634620e-02
1.902800e-01 -1.754870e-01 -6.703540e-02
2.275860e-01 -1.895480e-01 2.113960e-01
2.042100e-01 -9.341040e-02 1.949170e-01
2.152370e-01 -1.270380e-01 2.142270e-01
1.899090e-01 -2.359590e-01 1.254010e-01
2.083780e-01 -1.074800e-01 2.052830e-01
1.898710e-01 -1.312340e-01 -7.132840e-02
1.894970e-01 -2.603600e-01 2.136890e-02
1.893610e-01 -1.840050e-01 -6.653760e-02
1.893010e-01 -2.044870e-01 -7.104340e-02
2.065030e-01 -2.253490e-01 1.627680e-01
1.889990e-01 -5.448720e-02 1.264900e-01
2.259870e-01 -1.690150e-01 2.175830e-01
2.180280e-01 -2.075040e-01 1.920400e-01
1.887900e-01 -2.568620e-01 7.635240e-02
1.883180e-01 -2.644740e-01 -4.243470e-02
1.883010e-01 -2.586830e-01 -7.027050e-03
1.881390e-01 -6.623870e-02 1.445470e-01
1.881100e-01 -2.599850e-01 -2.861120e-02
2.030300e-01 -1.002080e-01 2.002380e-01
1.875480e-01 -2.605260e-01 4.937760e-02
1.870370e-01 -1.679900e-01 -6.897980e-02
2.182170e-01 -2.006100e-01 1.977890e-01
1.868970e-01 -1.919400e-01 -6.766510e-02
1.863230e-01 -9.971900e-02 -6.953720e-02
1.863140e-01 -4.516090e-02 1.244600e-01
1.862550e-01 -2.586710e-01 -1.456640e-02
1.861570e-01 -2.556200e-01 8.274300e-02
1.861440e-01 -7.642020e-02 -7.072850e-02
1.859360e-01 -2.417790e-01 1.171250e-01
1.858970e-01 -1.371650e-01 -7.206020e-02
2.212450e-01 -1.746700e-01 2.124990e-01
1.857440e-01 -2.622360e-01 -3.536340e-02
1.856330e-01 -2.529560e-01 9.258840e-02
2.070410e-01 -2.161350e-01 1.752750e-01
1.855570e-01 -1.213840e-01 -7.155390e-02
2.049180e-01 -1.162390e-01 2.081790e-01
2.197010e-01 -1.832180e-01 2.080980e-01
1.850720e-01 -2.593090e-01 -2.276520e-02
1.850120e-01 -1.986880e-01 -7.014560e-02
1.849700e-01 -9.100960e-02 -6.886920e-02
1.848720e-01 -2.597210e-01 6.013620e-03
2.121080e-01 -1.398450e-01 2.138630e-01
1.847480e-01 -2.504760e-01 9.958310e-02
1.846970e-01 -6.993600e-02 1.535580e-01
1.846760e-01 -7.381630e-02 1.627310e-01
1.846550e-01 -2.020110e-01 -7.268140e-02
1.846120e-01 -8.966510e-02 1.828480e-01
1.845140e-01 -1.611990e-01 -7.044340e-02
1.843870e-01 -8.392980e-02 -6.945640e-02
1.843310e-01 -2.273520e-01 1.363690e-01
1.842380e-01 -1.506610e-01 -7.154120e-02
2.134710e-01 -1.478770e-01 2.137450e-01
1.839490e-01 -1.121810e-01 -7.109440e-02
1.839270e-01 -8.514660e-02 1.788360e-01
1.977180e-01 -2.265950e-01 1.563080e-01
1.835830e-01 -7.650530e-02 1.672410e-01
2.146140e-01 -1.935250e-01 1.992470e-01
1.835270e-01 -2.606570e-01 2.076890e-02
1.834420e-01 -5.848660e-02 1.277240e-01
1.996630e-01 -1.072590e-01 2.033460e-01
1.832300e-01 -2.603430e-01 5.654680e-02
1.830810e-01 -2.611430e-01 3.982580e-02
1.828590e-01 -6.510270e-02 1.380410e-01
1.828340e-01 -1.028670e-01 -7.065190e-02
1.827100e-01 -2.611000e-01 3.208220e-02
1.825570e-01 -2.606450e-01 -3.010880e-02
2.055800e-01 -1.301540e-01 2.108160e-01
2.078180e-01 -2.055000e-01 1.861810e-01
1.824080e-01 -7.964950e-02 1.717390e-01
2.120630e-01 -1.556230e-01 2.113640e-01
1.816300e-01 -2.389160e-01 1.217710e-01
1.814340e-01 -1.858900e-01 -6.846080e-02
2.010230e-01 -1.211710e-01 2.080150e-01
1.812940e-01 -2.466210e-01 1.089090e-01
1.810810e-01 -9.448140e-02 1.851960e-01
1.810170e-01 -2.589640e-01 -1.594920e-02
1.809400e-01 -1.924210e-01 -6.950740e-02
1.808000e-01 -5.309590e-02 1.251370e-01
1.806510e-01 -1.290130e-01 -7.242190e-02
1.805920e-01 -1.793840e-01 -6.895000e-02
2.004450e-01 -2.133410e-01 1.737810e-01
1.805150e-01 -1.469890e-01 -7.227720e-02
1.804130e-01 -2.644610e-01 -4.220920e-02
1.803410e-01 -6.777040e-02 1.437130e-01
1.799110e-01 -2.611810e-01 4.674820e-02
1.798470e-01 -6.355820e-02 1.327780e-01
1.797110e-01 -2.573180e-01 7.659070e-02
2.100090e-01 -1.811700e-01 2.009080e-01
1.795960e-01 -9.526860e-02 -7.086040e-02
2.100990e-01 -1.672530e-01 2.062440e-01
1.795150e-01 -2.593770e-01 -2.340770e-02
1.795110e-01 -2.542750e-01 8.922720e-02
1.794300e-01 -1.381010e-01 -7.262610e-02
2.045270e-01 -1.991640e-01 1.876940e-01
1.789110e-01 -2.351080e-01 1.267880e-01
1.788600e-01 -7.217830e-02 1.553620e-01
1.784300e-01 -2.592830e-01 -3.342480e-03
1.783790e-01 -2.603260e-01 1.283390e-02
1.947240e-01 -1.134830e-01 2.036790e-01
1.782940e-01 -9.015010e-02 1.816780e-01
2.065540e-01 -1.879260e-01 1.949440e-01
1.782730e-01 -1.989860e-01 -7.363450e-02
1.779070e-01 -1.667050e-01 -7.100510e-02
1.922170e-01 -2.205200e-01 1.605850e-01
1.777070e-01 -1.055270e-01 -7.175810e-02
1.916870e-01 -1.058900e-01 2.000620e-01
1.774940e-01 -8.788660e-02 -7.204320e-02
1.774770e-01 -2.203650e-01 1.415900e-01
2.036460e-01 -1.496210e-01 2.069250e-01
1.770980e-01 -7.647550e-02 1.635870e-01
1.770260e-01 -2.279010e-01 1.345870e-01
1.769030e-01 -2.614280e-01 -3.588670e-02
1.766260e-01 -1.145000e-01 -7.231130e-02
1.766130e-01 -2.602410e-01 6.093760e-02
1.763710e-01 -8.135570e-02 -7.432370e-02
1.946740e-01 -1.228690e-01 2.052760e-01
1.761790e-01 -2.588360e-01 -1.793610e-02
1.994900e-01 -1.982050e-01 1.837900e-01
1.991780e-01 -1.403430e-01 2.061900e-01
1.759920e-01 -8.582310e-02 1.766020e-01
1.759840e-01 -2.609850e-01 5.312170e-02
1.759580e-01 -2.482380e-01 1.060370e-01
1.755710e-01 -6.239240e-02 1.291750e-01
1.938970e-01 -2.092440e-01 1.722380e-01
1.753880e-01 -2.609380e-01 2.361530e-02
2.026080e-01 -1.772940e-01 1.956580e-01
1.751460e-01 -9.716620e-02 -7.212410e-02
1.749030e-01 -1.919480e-01 -7.010730e-02
2.010690e-01 -1.566120e-01 2.026220e-01
1.952930e-01 -1.325470e-01 2.053930e-01
1.746220e-01 -2.513780e-01 9.880880e-02
1.991600e-01 -1.871680e-01 1.882440e-01
1.739630e-01 -9.609820e-02 1.837450e-01
1.738860e-01 -5.838030e-02 1.258980e-01
1.738650e-01 -1.545320e-01 -7.239210e-02
1.735930e-01 -2.587600e-01 -1.156680e-02
1.875210e-01 -2.164010e-01 1.613710e-01
1.733670e-01 -7.354400e-02 1.533920e-01
1.733200e-01 -8.175990e-02 1.695860e-01
1.733200e-01 -2.590150e-01 -2.990040e-02
1.992580e-01 -1.656000e-01 1.971710e-01
1.914810e-01 -1.277910e-01 2.036690e-01
1.728860e-01 -1.237960e-01 -7.289420e-02
1.728400e-01 -6.863410e-02 1.384460e-01
1.885030e-01 -1.181160e-01 2.015810e-01
1.727670e-01 -2.593130e-01 6.798770e-02
1.725800e-01 -2.613510e-01 -4.183480e-02
1.725120e-01 -7.119120e-02 1.451250e-01
1.724440e-01 -2.602580e-01 1.227650e-02
1.721290e-01 -2.450380e-01 1.125000e-01
1.718950e-01 -1.853150e-01 -6.966480e-02
1.718650e-01 -2.596240e-01 -3.689080e-02
1.892780e-01 -2.060950e-01 1.702020e-01
1.717890e-01 -2.415620e-01 1.177850e-01
1.716100e-01 -1.033610e-01 1.849450e-01
1.714820e-01 -2.613550e-01 4.436980e-02
1.713840e-01 -2.613510e-01 3.731120e-02
1.713720e-01 -1.081430e-01 -7.278350e-02
1.712870e-01 -1.428570e-01 -7.286860e-02
1.712610e-01 -2.564200e-01 8.191760e-02
1.935280e-01 -1.894760e-01 1.816120e-01
1.711890e-01 -1.295400e-01 -7.298780e-02
1.709460e-01 -1.765930e-01 -7.042220e-02
1.941650e-01 -1.539200e-01 1.974900e-01
1.707380e-01 -9.175840e-02 -7.386420e-02
1.706480e-01 -9.215410e-02 1.793720e-01
1.889140e-01 -2.015360e-01 1.721760e-01
1.705720e-01 -2.611720e-01 3.001870e-02
1.705460e-01 -6.696630e-02 1.324510e-01
1.702820e-01 -2.589260e-01 -4.937990e-03
1.907790e-01 -1.414390e-01 1.997750e-01
1.887700e-01 -1.346000e-01 2.006310e-01
1.697970e-01 -2.577770e-01 -2.337360e-02
1.932750e-01 -1.762510e-01 1.863760e-01
1.697080e-01 -7.888790e-02 1.610130e-01
1.696190e-01 -1.680670e-01 -7.137520e-02
1.858880e-01 -1.279070e-01 2.002190e-01
1.690360e-01 -2.298530e-01 1.308470e-01
1.687850e-01 -2.085250e-01 1.462230e-01
1.686270e-01 -1.089730e-01 1.841710e-01
1.683380e-01 -8.454240e-02 -7.701700e-02
1.682740e-01 -2.192170e-01 1.391560e-01
1.682610e-01 -8.792920e-02 1.732240e-01
1.681680e-01 -2.580580e-01 7.515260e-02
1.681590e-01 -2.571390e-01 -3.429550e-02
1.681080e-01 -2.603940e-01 6.082270e-02
1.677980e-01 -7.759880e-02 1.555670e-01
1.824330e-01 -1.212430e-01 1.981720e-01
1.899860e-01 -1.673000e-01 1.865350e-01
1.673380e-01 -1.955950e-01 -7.155820e-02
1.882970e-01 -1.810410e-01 1.789140e-01
1.671210e-01 -2.575350e-01 -1.793190e-02
1.670530e-01 -6.499210e-02 1.281750e-01
1.842380e-01 -1.970680e-01 1.690130e-01
1.668320e-01 -9.880420e-02 1.805670e-01
1.812830e-01 -2.040320e-01 1.634260e-01
1.663260e-01 -7.519910e-02 1.468270e-01
1.867530e-01 -1.508780e-01 1.915180e-01
1.660790e-01 -1.574260e-01 -7.223470e-02
1.660360e-01 -2.383250e-01 1.213710e-01
1.659210e-01 -8.410850e-02 1.653100e-01
1.867820e-01 -1.582820e-01 1.874160e-01
1.813120e-01 -1.281420e-01 1.964780e-01
1.657090e-01 -2.511140e-01 9.957890e-02
1.656870e-01 -1.330460e-01 -7.297070e-02
1.656580e-01 -1.031480e-01 -7.371110e-02
1.861630e-01 -1.724580e-01 1.796760e-01
1.834330e-01 -1.876270e-01 1.710170e-01
1.650960e-01 -2.575900e-01 -4.533640e-02
1.649940e-01 -2.611770e-01 4.889680e-02
1.648280e-01 -1.103170e-01 -7.360470e-02
1.647940e-01 -2.069720e-01 1.439940e-01
1.819290e-01 -1.378690e-01 1.934290e-01
1.645430e-01 -2.538580e-01 9.144390e-02
1.644450e-01 -6.168620e-02 1.256730e-01
1.643050e-01 -1.892250e-01 -6.994990e-02
1.642880e-01 -9.669390e-02 -7.465560e-02
1.642150e-01 -2.565560e-01 8.175590e-02
1.829330e-01 -1.782240e-01 1.734770e-01
1.640030e-01 -7.315690e-02 1.378030e-01
1.639640e-01 -1.071010e-01 1.804010e-01
1.639340e-01 -2.550580e-01 -3.746520e-02
1.638200e-01 -9.445590e-02 1.749720e-01
1.637340e-01 -2.608620e-01 5.495980e-02
1.636920e-01 -2.476590e-01 1.072330e-01
1.636580e-01 -8.286180e-02 1.602340e-01
1.636320e-01 -1.799330e-01 -7.017110e-02
1.634790e-01 -2.551820e-01 -2.925360e-02
1.826780e-01 -1.616510e-01 1.806130e-01
1.629980e-01 -2.606110e-01 2.090930e-02
1.629260e-01 -1.618930e-01 -7.174960e-02
1.629090e-01 -2.591810e-01 6.925560e-02
1.626280e-01 -1.188010e-01 -7.368550e-02
1.625390e-01 -2.590870e-01 3.273590e-03
1.625090e-01 -2.163060e-01 1.377270e-01
1.791870e-01 -1.419390e-01 1.883110e-01
1.621690e-01 -9.426870e-02 -7.570650e-02
1.621010e-01 -2.438430e-01 1.135600e-01
1.621010e-01 -2.578280e-01 -7.478050e-03
1.619220e-01 -1.154490e-01 1.790010e-01
1.793400e-01 -1.698220e-01 1.720580e-01
1.755190e-01 -1.287730e-01 1.905240e-01
1.611900e-01 -6.657480e-02 1.270260e-01
1.611140e-01 -8.089620e-02 1.517500e-01
1.609010e-01 -1.376920e-01 -7.268140e-02
1.773260e-01 -1.778210e-01 1.662030e-01
1.607010e-01 -1.947690e-01 1.435980e-01
1.606750e-01 -2.233220e-01 1.326080e-01
1.606070e-01 -8.990340e-02 1.658760e-01
1.605050e-01 -2.303940e-01 1.276430e-01
1.603050e-01 -2.538070e-01 -4.573210e-02
1.602800e-01 -7.835610e-02 1.441980e-01
1.775500e-01 -1.621830e-01 1.736970e-01
1.601990e-01 -2.529100e-01 -4.116260e-02
1.601310e-01 -2.365080e-01 1.220350e-01
1.600460e-01 -1.010760e-01 1.742700e-01
1.743500e-01 -1.849590e-01 1.601730e-01
1.596410e-01 -2.555430e-01 -2.004220e-02
1.595270e-01 -7.147620e-02 1.303790e-01
1.594880e-01 -1.092500e-01 1.759810e-01
1.594500e-01 -2.501910e-01 1.012890e-01
1.594410e-01 -1.989390e-01 -7.222190e-02
1.590880e-01 -2.611040e-01 3.989810e-02
1.588420e-01 -9.193290e-02 -7.761690e-02
1.585350e-01 -1.277790e-01 -7.329840e-02
1.584930e-01 -2.581900e-01 7.406340e-02
1.584200e-01 -2.556200e-01 8.495970e-02
1.583740e-01 -2.103800e-01 1.369310e-01
1.722100e-01 -1.340520e-01 1.844400e-01
1.582710e-01 -2.608700e-01 2.946980e-02
1.579010e-01 -1.502440e-01 -7.201340e-02
1.578250e-01 -8.701020e-02 1.563960e-01
1.577520e-01 -9.620880e-02 1.677690e-01
1.576540e-01 -6.322640e-02 1.252900e-01
1.576030e-01 -1.673390e-01 -7.076250e-02
1.574160e-01 -2.520200e-01 -3.491240e-02
1.723010e-01 -1.499610e-01 1.746440e-01
1.568590e-01 -2.600620e-01 6.103120e-02
1.566630e-01 -1.894340e-01 1.386670e-01
1.565990e-01 -1.011190e-01 1.690960e-01
1.563100e-01 -1.206820e-01 1.714280e-01
1.562420e-01 -2.178680e-01 1.325660e-01
1.562210e-01 -1.918290e-01 -6.924360e-02
1.699860e-01 -1.393760e-01 1.787320e-01
1.560840e-01 -7.752220e-02 1.355140e-01
1.559910e-01 -1.804820e-01 -6.946490e-02
1.559820e-01 -1.665390e-01 1.436700e-01
1.559140e-01 -1.136830e-01 -7.437480e-02
1.558850e-01 -2.596240e-01 1.078740e-02
1.557780e-01 -1.130620e-01 1.712660e-01
1.556890e-01 -2.409790e-01 1.161210e-01
1.696280e-01 -1.662800e-01 1.599530e-01
1.555910e-01 -1.339520e-01 -7.269840e-02
1.555530e-01 -1.727300e-01 1.403560e-01
1.554590e-01 -6.893620e-02 1.270130e-01
1.552890e-01 -2.492380e-01 -4.405580e-02
1.552040e-01 -2.586920e-01 3.082130e-03
1.549870e-01 -8.330860e-02 1.446490e-01
1.549480e-01 -1.055390e-01 -7.499600e-02
1.547780e-01 -2.463190e-01 1.085390e-01
1.547140e-01 -9.365180e-02 1.591490e-01
1.545950e-01 -1.069520e-01 1.681310e-01
1.545360e-01 -2.605380e-01 5.342810e-02
1.681310e-01 -1.600960e-01 1.617180e-01
1.544890e-01 -2.038320e-01 1.338850e-01
1.542930e-01 -7.353130e-02 1.290430e-01
1.542850e-01 -1.964620e-01 1.342840e-01
1.537780e-01 -2.527050e-01 -2.702840e-02
1.537190e-01 -1.006210e-01 1.635570e-01
1.533870e-01 -2.247220e-01 1.276170e-01
1.533610e-01 -1.549320e-01 -7.113270e-02
1.532810e-01 -2.142090e-01 1.309960e-01
1.532080e-01 -2.356060e-01 1.207420e-01
1.529740e-01 -2.555770e-01 -1.454940e-02
1.528720e-01 -9.174990e-02 1.531330e-01
1.528420e-01 -1.799120e-01 1.333480e-01
1.528000e-01 -2.572240e-01 -6.031450e-03
1.527570e-01 -2.607770e-01 4.328480e-02
1.526250e-01 -1.182650e-01 1.663910e-01
1.526250e-01 -2.524200e-01 9.473700e-02
1.525830e-01 -1.253030e-01 1.644080e-01
1.523740e-01 -2.564450e-01 8.093050e-02
1.523150e-01 -1.568300e-01 1.435980e-01
1.518550e-01 -1.864680e-01 -6.829060e-02
1.517110e-01 -1.419680e-01 -7.170280e-02
1.515700e-01 -2.441240e-01 -4.758290e-02
1.515530e-01 -2.323930e-01 1.223800e-01
1.514550e-01 -1.996150e-01 -6.900110e-02
1.513280e-01 -6.417090e-02 1.256640e-01
1.512470e-01 -9.852340e-02 -7.734030e-02
1.512210e-01 -8.962260e-02 1.470020e-01
1.509920e-01 -2.491270e-01 -3.480600e-02
1.509580e-01 -1.447080e-01 1.499970e-01
1.508430e-01 -1.712360e-01 1.331020e-01
1.507620e-01 -2.266160e-01 1.253240e-01
1.506640e-01 -2.583680e-01 7.015760e-02
1.505870e-01 -1.136020e-01 -7.461730e-02
1.505280e-01 -2.173870e-01 1.277450e-01
1.505190e-01 -1.616420e-01 1.381690e-01
1.504850e-01 -2.059460e-01 1.286560e-01
1.502390e-01 -7.111880e-02 1.262260e-01
1.502340e-01 -2.494680e-01 1.018340e-01
1.499070e-01 -1.592760e-01 -7.016690e-02
1.498680e-01 -8.399360e-02 1.364710e-01
1.498600e-01 -2.459620e-01 -3.957130e-02
1.495070e-01 -1.961260e-01 1.274770e-01
1.492940e-01 -7.732650e-02 1.285150e-01
1.491790e-01 -1.683090e-01 -6.920960e-02
1.489750e-01 -1.353780e-01 1.532860e-01
1.488640e-01 -1.195540e-01 -7.393230e-02
1.484600e-01 -9.762140e-02 1.507590e-01
1.483200e-01 -2.387840e-01 -4.987620e-02
1.481920e-01 -2.599210e-01 5.555120e-02
1.481660e-01 -1.508610e-01 1.421600e-01
1.481280e-01 -2.597680e-01 1.311470e-02
1.481150e-01 -2.589260e-01 5.137150e-03
1.480350e-01 -2.590580e-01 6.403080e-02
1.479960e-01 -1.858680e-01 1.249670e-01
1.479580e-01 -1.339440e-01 -7.200490e-02
1.478940e-01 -2.399710e-01 1.148320e-01
1.478560e-01 -1.804260e-01 -6.767360e-02
1.477920e-01 -1.208220e-01 1.579700e-01
1.476090e-01 -1.802780e-01 1.250820e-01
1.475240e-01 -2.106650e-01 1.254430e-01
1.474730e-01 -1.064540e-01 1.554430e-01
1.474350e-01 -2.526160e-01 -2.365440e-02
1.473450e-01 -2.411670e-01 -4.316650e-02
1.471280e-01 -1.919010e-01 -6.636740e-02
1.470860e-01 -1.138230e-01 1.569960e-01
1.470050e-01 -2.451450e-01 1.085730e-01
1.468820e-01 -2.499020e-01 -2.930040e-02
1.468350e-01 -2.525740e-01 9.275010e-02
1.467750e-01 -1.071560e-01 -7.562140e-02
1.467280e-01 -2.551480e-01 -1.585130e-02
1.463840e-01 -2.602450e-01 4.577810e-02
1.463800e-01 -2.028320e-01 1.240900e-01
1.463710e-01 -2.564450e-01 7.778200e-02
1.462900e-01 -1.295830e-01 1.523120e-01
1.459970e-01 -2.337760e-01 -5.310980e-02
1.459920e-01 -1.718230e-01 1.265540e-01
1.458520e-01 -1.638970e-01 1.314300e-01
1.457240e-01 -2.570750e-01 -8.133280e-03
1.455330e-01 -9.186050e-02 1.394920e-01
1.455200e-01 -2.455920e-01 -3.499320e-02
1.452820e-01 -7.373970e-02 1.247790e-01
1.452610e-01 -1.778100e-01 1.231160e-01
1.448010e-01 -6.843840e-02 1.244650e-01
1.447120e-01 -1.386750e-01 1.454320e-01
1.445240e-01 -1.226010e-01 1.524390e-01
1.444560e-01 -2.343550e-01 1.175460e-01
1.444100e-01 -8.864820e-02 1.344460e-01
1.442520e-01 -2.584370e-01 -7.513620e-04
1.440050e-01 -2.003770e-01 -6.412100e-02
1.439590e-01 -2.549770e-01 8.277280e-02
1.439080e-01 -1.121380e-01 -7.497470e-02
1.437250e-01 -1.986920e-01 1.208400e-01
1.437080e-01 -1.146570e-01 1.518390e-01
1.437080e-01 -2.179190e-01 1.222100e-01
1.437030e-01 -2.396350e-01 -4.070300e-02
1.435880e-01 -8.451690e-02 1.296810e-01
1.435160e-01 -1.549410e-01 1.349400e-01
1.435160e-01 -2.274070e-01 -5.554350e-02
1.434740e-01 -1.241450e-01 -7.278780e-02
1.434310e-01 -1.840690e-01 1.194020e-01
1.433880e-01 -1.609400e-01 -6.839690e-02
1.433840e-01 -2.600830e-01 2.044980e-02
1.433760e-01 -1.039100e-01 -7.707650e-02
1.432570e-01 -2.269560e-01 1.202010e-01
1.432270e-01 -1.866810e-01 -6.531650e-02
1.431710e-01 -1.065560e-01 1.489330e-01
1.431420e-01 -2.327000e-01 -4.787650e-02
1.426400e-01 -2.601980e-01 3.012500e-02
1.425590e-01 -2.479230e-01 1.023780e-01
1.425290e-01 -9.999130e-02 1.431770e-01
1.424180e-01 -2.595560e-01 8.013330e-03
1.423970e-01 -1.307950e-01 1.465640e-01
1.422950e-01 -1.423430e-01 -6.975840e-02
1.422820e-01 -2.078180e-01 1.209200e-01
1.422740e-01 -2.576660e-01 6.846840e-02
1.422480e-01 -2.498930e-01 -2.876010e-02
1.420570e-01 -2.589850e-01 5.842310e-02
1.420100e-01 -2.532420e-01 -2.390550e-02
1.419250e-01 -1.706410e-01 -6.696730e-02
1.415460e-01 -2.556880e-01 -1.843820e-02
1.414650e-01 -2.460170e-01 -3.307010e-02
1.414270e-01 -2.082740e-01 -6.022360e-02
1.411720e-01 -1.962920e-01 -6.270840e-02
1.411590e-01 -2.600190e-01 3.584760e-02
1.411250e-01 -1.665180e-01 1.253620e-01
1.410740e-01 -1.244260e-01 1.473720e-01
1.409800e-01 -1.451080e-01 1.384200e-01
1.406990e-01 -7.874330e-02 1.240350e-01
1.406190e-01 -1.763680e-01 1.191800e-01
1.405170e-01 -1.900890e-01 1.157680e-01
1.404650e-01 -2.432770e-01 1.080970e-01
1.404360e-01 -2.577260e-01 -1.232840e-02
1.403720e-01 -2.413330e-01 -3.706100e-02
1.403000e-01 -1.295830e-01 -7.139650e-02
1.402950e-01 -2.498250e-01 9.726000e-02
1.400950e-01 -1.191840e-01 1.470570e-01
1.399250e-01 -2.517230e-01 9.189060e-02
1.397760e-01 -1.146660e-01 1.466190e-01
1.395800e-01 -1.078160e-01 1.444660e-01
1.395680e-01 -7.178680e-02 1.228310e-01
1.394360e-01 -1.173800e-01 -7.369830e-02
1.392780e-01 -1.800730e-01 -6.474210e-02
1.392700e-01 -2.161400e-01 -5.467120e-02
1.391000e-01 -2.591900e-01 -5.814460e-03
1.390700e-01 -2.155110e-01 1.188310e-01
1.389380e-01 -9.303480e-02 1.328760e-01
1.388270e-01 -1.383690e-01 1.400070e-01
1.386270e-01 -2.599380e-01 1.659930e-02
1.386060e-01 -1.849830e-01 1.140700e-01
1.385000e-01 -2.399290e-01 1.104110e-01
1.383550e-01 -1.603270e-01 1.274680e-01
1.382870e-01 -1.017780e-01 1.395600e-01
1.381640e-01 -2.225140e-01 1.175590e-01
1.381590e-01 -2.241560e-01 -4.938260e-02
1.381590e-01 -2.321980e-01 -4.346010e-02
1.380620e-01 -2.594410e-01 4.306790e-02
1.380110e-01 -1.919140e-01 -6.175530e-02
1.379850e-01 -2.568280e-01 6.970660e-02
1.375810e-01 -6.358380e-02 1.254940e-01
1.375210e-01 -2.324960e-01 1.143260e-01
1.371170e-01 -7.285900e-02 1.218140e-01
1.369550e-01 -2.461060e-01 1.023360e-01
1.369090e-01 -2.477490e-01 -3.283610e-02
1.368150e-01 -1.271580e-01 1.423940e-01
1.367940e-01 -2.550970e-01 -2.570950e-02
1.367640e-01 -2.096780e-01 1.163380e-01
1.367550e-01 -1.513710e-01 1.318760e-01
1.366620e-01 -1.233500e-01 1.431260e-01
1.365510e-01 -1.327400e-01 1.405520e-01
1.363090e-01 -2.007470e-01 -5.784950e-02
1.360920e-01 -1.102410e-01 -7.584270e-02
1.359260e-01 -1.811070e-01 1.130920e-01
1.358450e-01 -2.385200e-01 -3.853310e-02
1.356660e-01 -2.056650e-01 1.144190e-01
1.354960e-01 -2.605040e-01 2.631130e-03
1.354240e-01 -2.602450e-01 9.272720e-03
1.354150e-01 -1.154950e-01 1.419260e-01
1.353170e-01 -2.599130e-01 -1.713200e-02
1.350750e-01 -8.560610e-02 1.246730e-01
1.350660e-01 -1.443170e-01 -6.769490e-02
1.350530e-01 -1.087390e-01 1.398540e-01
1.349510e-01 -1.000760e-01 1.349060e-01
1.349050e-01 -1.735980e-01 -6.412100e-02
1.347130e-01 -1.754570e-01 1.149980e-01
1.346880e-01 -2.484080e-01 9.654100e-02
1.344920e-01 -2.078990e-01 -5.336510e-02
1.343510e-01 -1.917310e-01 1.098450e-01
1.342580e-01 -1.972620e-01 1.104110e-01
1.342150e-01 -2.334360e-01 1.113350e-01
1.341340e-01 -2.577220e-01 5.736370e-02
1.341300e-01 -1.334800e-01 -6.932450e-02
1.341090e-01 -1.422790e-01 1.349400e-01
1.338620e-01 -2.175020e-01 1.136700e-01
1.337560e-01 -2.619300e-01 -8.814030e-03
1.337050e-01 -2.599980e-01 1.582920e-02
1.335390e-01 -2.504720e-01 9.048650e-02
1.334710e-01 -2.316570e-01 -4.194120e-02
1.331090e-01 -2.593470e-01 2.920180e-02
1.330410e-01 -2.585300e-01 4.521650e-02
1.328580e-01 -2.532160e-01 8.107510e-02
1.328030e-01 -9.302630e-02 1.281360e-01
1.327810e-01 -2.158850e-01 -4.885930e-02
1.324240e-01 -6.679610e-02 1.235630e-01
1.323430e-01 -2.028150e-01 1.097770e-01
1.322580e-01 -1.251660e-01 -7.080510e-02
1.321480e-01 -2.105750e-01 1.111130e-01
1.320280e-01 -1.821110e-01 -6.117670e-02
1.318880e-01 -1.223580e-01 1.393480e-01
1.318240e-01 -2.248920e-01 1.111390e-01
1.316620e-01 -1.593490e-01 -6.489960e-02
1.315770e-01 -7.905390e-02 1.205500e-01
1.314970e-01 -2.434390e-01 -3.746950e-02
1.310800e-01 -2.253770e-01 -4.437060e-02
1.310500e-01 -1.593700e-01 1.233540e-01
1.310330e-01 -2.419750e-01 1.034000e-01
1.308580e-01 -2.628190e-01 -2.346880e-03
1.305310e-01 -2.551650e-01 6.911940e-02
1.305010e-01 -1.069010e-01 1.350590e-01
1.303610e-01 -2.461740e-01 9.721750e-02
1.302970e-01 -1.672790e-01 -6.334660e-02
1.299050e-01 -1.960670e-01 -5.549670e-02
1.297480e-01 -1.472060e-01 -6.575050e-02
1.293520e-01 -1.512730e-01 1.271280e-01
1.292160e-01 -2.270200e-01 1.076760e-01
1.292080e-01 -1.297270e-01 1.364800e-01
1.291480e-01 -2.381930e-01 1.042970e-01
1.290630e-01 -7.196980e-02 1.210440e-01
1.290160e-01 -2.616530e-01 6.860310e-03
1.289610e-01 -2.349170e-01 -4.108600e-02
1.287650e-01 -1.700580e-01 1.146490e-01
1.287010e-01 -2.183490e-01 1.072500e-01
1.287010e-01 -2.574030e-01 4.770970e-02
1.285740e-01 -1.887060e-01 1.053180e-01
1.284200e-01 -2.089250e-01 -4.887210e-02
1.283520e-01 -2.556710e-01 6.238850e-02
1.279060e-01 -9.951050e-02 1.291920e-01
1.276290e-01 -2.087970e-01 1.050720e-01
1.275910e-01 -1.198270e-01 -7.170710e-02
1.275270e-01 -2.018830e-01 -5.145890e-02
1.275180e-01 -1.974670e-01 1.037140e-01
1.274120e-01 -2.330830e-01 1.044590e-01
1.273740e-01 -1.832640e-01 1.060760e-01
1.272420e-01 -1.399300e-01 -6.613770e-02
1.271780e-01 -1.149420e-01 1.351400e-01
1.271180e-01 -2.606960e-01 1.296160e-02
1.265950e-01 -1.867660e-01 -5.692620e-02
1.265610e-01 -2.469530e-01 9.213310e-02
1.264970e-01 -8.514240e-02 1.200060e-01
1.262380e-01 -2.501910e-01 8.362800e-02
1.260250e-01 -2.410990e-01 9.885560e-02
1.260250e-01 -2.592920e-01 2.014350e-02
1.260160e-01 -1.503160e-01 -6.407410e-02
1.258720e-01 -2.518540e-01 7.784160e-02
1.257740e-01 -1.426490e-01 1.292380e-01
1.257570e-01 -2.147320e-01 -4.574490e-02
1.255700e-01 -1.553750e-01 1.224050e-01
1.254850e-01 -1.360670e-01 1.320340e-01
1.253230e-01 -9.152020e-02 1.226220e-01
1.252890e-01 -2.576200e-01 3.369050e-02
1.245490e-01 -1.622330e-01 1.174320e-01
1.244120e-01 -2.345210e-01 9.994050e-02
1.239830e-01 -2.170130e-01 1.011110e-01
1.239270e-01 -1.220220e-01 1.337570e-01
1.237790e-01 -2.558790e-01 4.817350e-02
1.237610e-01 -2.533010e-01 6.877050e-02
1.237360e-01 -1.031230e-01 1.283450e-01
1.234760e-01 -1.353610e-01 -6.608660e-02
1.233620e-01 -2.434050e-01 9.318830e-02
1.229740e-01 -2.607550e-01 1.358700e-02
1.227190e-01 -1.786480e-01 -5.724110e-02
1.226430e-01 -2.075590e-01 9.915340e-02
1.224090e-01 -1.683350e-01 1.117220e-01
1.221360e-01 -2.280200e-01 -4.332390e-02
