0.107339 -0.328817 0.126125
0.115933 -0.312856 0.12459
0.1233 -0.328817 0.132338
0.13926 -0.328817 0.133094
0.1233 -0.312856 0.127066
0.13926 -0.312856 0.128959
0.148448 -0.424581 0.12459
0.155221 -0.424581 0.117148
0.149704 -0.40862 0.12459
0.155221 -0.40862 0.118803
0.155132 -0.39266 0.12459
0.155221 -0.39266 0.1245
0.155221 -0.392472 0.12459
0.161662 -0.376699 0.12459
0.171182 -0.376699 0.111486
0.155221 -0.376699 0.130706
0.16407 -0.360738 0.12459
0.171182 -0.360738 0.116654
0.164024 -0.344777 0.12459
0.171182 -0.344777 0.118131
0.155221 -0.360738 0.132145
0.155221 -0.344777 0.130763
0.163072 -0.328817 0.12459
0.171182 -0.328817 0.118389
0.159491 -0.312856 0.12459
0.171182 -0.312856 0.117318
0.155221 -0.328817 0.12905
0.155221 -0.312856 0.126427
0.13925 -0.296895 -0.00309534
0.13926 -0.296905 -0.00309534
0.13926 -0.296895 -0.00309902
0.129868 -0.280935 -0.00309534
0.13926 -0.280935 -0.00808101
0.109198 -0.296895 0.0128653
0.1233 -0.296895 0.00384051
0.110044 -0.280935 0.0128653
0.1233 -0.280935 0.00116325
0.102866 -0.249013 0.0128653
0.107339 -0.261374 0.0128653
0.107339 -0.249013 0.00529426
0.122325 -0.264974 -0.00309534
0.1233 -0.267028 -0.00309534
0.1233 -0.264974 -0.00401094
0.13926 -0.264974 -0.0140683
0.114031 -0.249013 -0.00309534
0.1233 -0.249013 -0.0119481
0.108458 -0.264974 0.0128653
0.0913784 -0.299572 0.028826
0.0924838 -0.296895 0.028826
0.107339 -0.296895 0.0142773
0.0978128 -0.280935 0.028826
0.107339 -0.280935 0.0157931
0.0834173 -0.296895 0.0447867
0.0913784 -0.296895 0.0303203
0.0908318 -0.280935 0.0447867
0.0913784 -0.280935 0.0432835
0.0999259 -0.264974 0.028826
0.107339 -0.264974 0.0144348
0.0967162 -0.249013 0.028826
0.0913784 -0.279887 0.0447867
0.0960564 -0.264974 0.0447867
0.0947991 -0.249013 0.0447867
0.0681075 -0.18517 0.0128653
0.0754177 -0.196825 0.0128653
0.0754177 -0.18517 -0.00120148
0.0728929 -0.201131 0.028826
0.0754177 -0.205083 0.028826
0.0754177 -0.201131 0.0203947
0.0628664 -0.18517 0.028826
0.0701925 -0.201131 0.0447867
0.0754177 -0.209482 0.0447867
0.06026 -0.18517 0.0447867
0.104692 -0.233053 -0.00309534
0.107339 -0.237538 -0.00309534
0.107339 -0.233053 -0.00643882
0.095576 -0.217092 -0.00309534
0.107339 -0.217092 -0.0162704
0.095658 -0.233053 0.0128653
0.0871611 -0.217092 0.0128653
0.0913784 -0.224755 0.0128653
0.0913784 -0.217092 0.00419896
0.0860182 -0.201131 -0.00309534
0.0913784 -0.209672 -0.00309534
0.0913784 -0.201131 -0.00974449
0.0766998 -0.18517 -0.00309534
0.0913784 -0.18517 -0.0178865
0.0781655 -0.201131 0.0128653
0.0902781 -0.233053 0.028826
0.0913784 -0.235116 0.028826
0.0913784 -0.233053 0.024737
0.0823058 -0.217092 0.028826
0.088498 -0.233053 0.0447867
0.0913784 -0.238372 0.0447867
0.0799056 -0.217092 0.0447867
0.0809093 -0.296895 0.0607475
0.0886031 -0.280935 0.0607475
0.0830967 -0.296895 0.0767082
0.0910772 -0.280935 0.0767082
0.0913784 -0.276009 0.0607475
0.0959039 -0.264974 0.0607475
0.0968215 -0.249013 0.0607475
0.0913784 -0.280459 0.0767082
0.100421 -0.264974 0.0767082
0.10485 -0.249013 0.0767082
0.0893347 -0.296895 0.0926689
0.0913784 -0.292989 0.0926689
0.0913784 -0.280935 0.0776455
0.0986979 -0.280935 0.0926689
0.0913784 -0.296895 0.0960692
0.101453 -0.296895 0.10863
0.107339 -0.289256 0.10863
0.107339 -0.280935 0.102417
0.116524 -0.280935 0.10863
0.107339 -0.270694 0.0926689
0.107339 -0.264974 0.0872104
0.107339 -0.249013 0.0795133
0.113595 -0.264974 0.0926689
0.1233 -0.256543 0.0926689
0.1233 -0.249013 0.0895253
0.13926 -0.252466 0.0926689
0.13926 -0.249013 0.0910844
0.1233 -0.276935 0.10863
0.1233 -0.264974 0.0983622
0.13926 -0.273043 0.10863
0.13926 -0.264974 0.101345
0.0708285 -0.201131 0.0607475
0.0754177 -0.208068 0.0607475
0.0611793 -0.18517 0.0607475
0.0754177 -0.201131 0.0729299
0.0671905 -0.18517 0.0767082
0.0754177 -0.197907 0.0767082
0.0754177 -0.18517 0.0878998
0.0911611 -0.233053 0.0607475
0.0913784 -0.233369 0.0607475
0.0813569 -0.217092 0.0607475
0.0913784 -0.233053 0.0612839
0.100718 -0.233053 0.0767082
0.0896148 -0.217092 0.0767082
0.0913784 -0.219255 0.0767082
0.0776759 -0.201131 0.0767082
0.107339 -0.233053 0.082372
0.0913784 -0.217092 0.0785625
0.107339 -0.217092 0.0900158
0.1233 -0.233053 0.089241
0.13926 -0.233053 0.0895466
0.114456 -0.217092 0.0926689
0.1233 -0.220994 0.0926689
0.13926 -0.218878 0.0926689
0.1233 -0.217092 0.0943142
0.13926 -0.217092 0.093335
0.0913784 -0.201131 0.0908823
0.0940416 -0.201131 0.0926689
0.107339 -0.21214 0.0926689
0.0805105 -0.18517 0.0926689
0.0913784 -0.198418 0.0926689
0.107339 -0.201131 0.0990435
0.0913784 -0.18517 0.100803
0.107339 -0.18517 0.106568
0.1233 -0.201131 0.101392
0.13926 -0.201131 0.099487
0.1233 -0.18517 0.107823
0.13926 -0.18517 0.10567
0.155221 -0.300462 -0.00309534
0.155221 -0.296895 -0.004806
0.162471 -0.296895 -0.00309534
0.155221 -0.280935 -0.0119755
0.171182 -0.290972 -0.00309534
0.171182 -0.280935 -0.0110263
0.171182 -0.296895 0.0010687
0.182429 -0.280935 -0.00309534
0.183217 -0.296895 0.0128653
0.187143 -0.286377 0.0128653
0.187143 -0.280935 0.00679836
0.189057 -0.280935 0.0128653
0.187143 -0.27558 -0.00309534
0.187143 -0.264974 -0.0150635
0.193246 -0.264974 -0.00309534
0.195607 -0.249013 -0.00309534
0.193433 -0.264974 0.0128653
0.194746 -0.249013 0.0128653
0.187143 -0.310329 0.028826
0.187143 -0.296895 0.019846
0.190699 -0.296895 0.028826
0.191824 -0.280935 0.028826
0.192034 -0.296895 0.0447867
0.191445 -0.280935 0.0447867
0.191639 -0.264974 0.028826
0.191281 -0.249013 0.028826
0.188999 -0.264974 0.0447867
0.186684 -0.249013 0.0447867
0.187143 -0.253061 0.0447867
0.187143 -0.249013 0.0431751
0.187143 -0.233053 -0.0160162
0.193942 -0.233053 -0.00309534
0.187143 -0.217092 -0.0142601
0.19422 -0.217092 -0.00309534
0.195207 -0.233053 0.0128653
0.198322 -0.217092 0.0128653
0.187143 -0.201131 -0.0155385
0.196024 -0.201131 -0.00309534
0.187143 -0.18517 -0.0134021
0.194867 -0.18517 -0.00309534
0.201168 -0.201131 0.0128653
0.200925 -0.18517 0.0128653
0.192838 -0.233053 0.028826
0.197786 -0.217092 0.028826
0.187143 -0.233942 0.0447867
0.187304 -0.233053 0.0447867
0.192856 -0.217092 0.0447867
0.201441 -0.201131 0.028826
0.201964 -0.18517 0.028826
0.197575 -0.201131 0.0447867
0.199032 -0.18517 0.0447867
0.191646 -0.296895 0.0607475
0.189352 -0.280935 0.0607475
0.191507 -0.296895 0.0767082
0.187094 -0.280935 0.0767082
0.187143 -0.281056 0.0767082
0.187143 -0.280935 0.0763893
0.167987 -0.249013 0.0767082
0.171182 -0.254673 0.0767082
0.171182 -0.249013 0.0733275
0.184257 -0.264974 0.0607475
0.187143 -0.273228 0.0607475
0.187143 -0.264974 0.0520401
0.179913 -0.249013 0.0607475
0.17757 -0.264974 0.0767082
0.165937 -0.280935 0.10863
0.171182 -0.285994 0.10863
0.171182 -0.280935 0.105045
0.187578 -0.296895 0.0926689
0.181446 -0.280935 0.0926689
0.187143 -0.295226 0.0926689
0.176968 -0.296895 0.10863
0.187143 -0.296895 0.0935674
0.164247 -0.264974 0.0926689
0.171182 -0.269669 0.0926689
0.171182 -0.264974 0.0862432
0.155221 -0.259297 0.0926689
0.155221 -0.249013 0.086299
0.155221 -0.275266 0.10863
0.155221 -0.264974 0.0979641
0.165698 -0.233053 0.0767082
0.171182 -0.233053 0.0712123
0.170116 -0.217092 0.0767082
0.171182 -0.217092 0.0756771
0.179065 -0.233053 0.0607475
0.187143 -0.233053 0.0451375
0.183731 -0.217092 0.0607475
0.187143 -0.217092 0.0554072
0.171182 -0.214553 0.0767082
0.187143 -0.20791 0.0607475
0.18946 -0.201131 0.0607475
0.192341 -0.18517 0.0607475
0.176975 -0.201131 0.0767082
0.187143 -0.201131 0.0640963
0.181655 -0.18517 0.0767082
0.187143 -0.18517 0.0690865
0.155221 -0.233053 0.0840778
0.14211 -0.217092 0.0926689
0.155221 -0.217092 0.0876349
0.155221 -0.202842 0.0926689
0.15649 -0.201131 0.0926689
0.171182 -0.201131 0.0823424
0.165434 -0.18517 0.0926689
0.171182 -0.18517 0.0879736
0.155221 -0.201131 0.0933968
0.155221 -0.18517 0.0995851
0.0402023 -0.153249 0.0128653
0.0434963 -0.155299 0.0128653
0.0434963 -0.153249 0.00997183
0.0677376 -0.16921 -0.00309534
0.0754177 -0.18295 -0.00309534
0.0754177 -0.16921 -0.0108947
0.0582173 -0.153249 -0.00309534
0.0594569 -0.154965 -0.00309534
0.0594569 -0.153249 -0.00413672
0.0754177 -0.153249 -0.0147755
0.0579323 -0.16921 0.0128653
0.0594569 -0.171328 0.0128653
0.0594569 -0.16921 0.0100207
0.0275355 -0.137719 -0.00309534
0.0275355 -0.137288 -0.00359858
0.0434963 -0.141402 -0.00309534
0.0434963 -0.137288 -0.00664157
0.0275355 -0.121328 -0.0181837
0.0434963 -0.121328 -0.0161559
0.0275355 -0.147886 0.0128653
0.0594569 -0.137288 -0.0122293
0.0754177 -0.137288 -0.0165576
0.0594569 -0.121328 -0.01815
0.0754177 -0.121328 -0.0188023
0.0267684 -0.153249 0.028826
0.0275355 -0.15368 0.028826
0.0275355 -0.153249 0.0272363
0.0434963 -0.162672 0.028826
0.0241701 -0.153249 0.0447867
0.0275355 -0.155639 0.0447867
0.0434963 -0.16573 0.0447867
0.0508913 -0.16921 0.028826
0.0594569 -0.179941 0.028826
0.0474426 -0.16921 0.0447867
0.0594569 -0.183977 0.0447867
0.13926 -0.121328 -0.0167329
0.0754177 -0.0574848 -0.0167543
0.0913784 -0.105367 -0.0184253
0.107339 -0.105367 -0.0154982
0.0913784 -0.0894062 -0.0174576
0.107339 -0.0894062 -0.0107462
0.1233 -0.105367 -0.0118869
0.13926 -0.105367 -0.00618175
0.121247 -0.0894062 -0.00309534
0.1233 -0.0912234 -0.00309534
0.13926 -0.101653 -0.00309534
0.1233 -0.0894062 -0.00183225
0.13926 -0.0894062 0.00851989
0.0913784 -0.0734455 -0.0138002
0.107339 -0.0734455 -0.00451622
0.0913784 -0.0574848 -0.0070606
0.0969626 -0.0574848 -0.00309534
0.107339 -0.0708404 -0.00309534
0.107339 -0.0574848 0.00574734
0.109157 -0.0734455 -0.00309534
0.1233 -0.0734455 0.00998512
0.125983 -0.0734455 0.0128653
0.13926 -0.0856072 0.0128653
0.113633 -0.0574848 0.0128653
0.1233 -0.0702664 0.0128653
0.135428 -0.0734455 0.028826
0.13926 -0.0771111 0.028826
0.122299 -0.0574848 0.028826
0.1233 -0.0587988 0.028826
0.137118 -0.0734455 0.0447867
0.13926 -0.0756256 0.0447867
0.1233 -0.0574848 0.0325566
0.125211 -0.0574848 0.0447867
0.025369 -0.153249 0.0607475
0.0275355 -0.154898 0.0607475
0.0434963 -0.164938 0.0607475
0.0275355 -0.153249 0.0717002
0.0293849 -0.153249 0.0767082
0.0434963 -0.160771 0.0767082
0.0486491 -0.16921 0.0607475
0.0594569 -0.182517 0.0607475
0.0552228 -0.16921 0.0767082
0.0594569 -0.173742 0.0767082
0.0275355 -0.152314 0.0767082
0.0425013 -0.153249 0.0926689
0.0434963 -0.153656 0.0926689
0.0434963 -0.153249 0.0933831
0.0594569 -0.16921 0.083044
0.0678834 -0.16921 0.0926689
0.0754177 -0.178306 0.0926689
0.0594569 -0.161883 0.0926689
0.0754177 -0.16921 0.0990406
0.0594569 -0.153249 0.102353
0.0749272 -0.153249 0.10863
0.0754177 -0.153551 0.10863
0.0275355 -0.148741 0.0926689
0.0275355 -0.146938 0.10863
0.0434963 -0.143805 0.10863
0.0594569 -0.146664 0.10863
0.0913784 -0.16921 0.10823
0.0923501 -0.16921 0.10863
0.107339 -0.180193 0.10863
0.0913784 -0.168252 0.10863
0.1233 -0.183016 0.10863
0.13926 -0.176085 0.10863
0.137485 -0.121328 0.10863
0.13926 -0.122573 0.10863
0.13926 -0.121328 0.108035
0.132941 -0.0734455 0.0607475
0.13926 -0.079963 0.0607475
0.123039 -0.0574848 0.0607475
0.1233 -0.0580221 0.0607475
0.1233 -0.0574848 0.060086
0.125252 -0.0734455 0.0767082
0.13926 -0.0890685 0.0767082
0.118273 -0.0574848 0.0767082
0.1233 -0.0698649 0.0767082
0.106681 -0.0894062 0.10863
0.107339 -0.0916027 0.10863
0.107339 -0.0894062 0.10813
0.123983 -0.0894062 0.0926689
0.13926 -0.101999 0.0926689
0.13926 -0.0894062 0.0771708
0.113555 -0.105367 0.10863
0.1233 -0.113289 0.10863
0.1233 -0.105367 0.103893
0.13926 -0.105367 0.0961444
0.1233 -0.0894062 0.0933543
0.101862 -0.0734455 0.10863
0.107339 -0.0734455 0.103884
0.0975921 -0.0574848 0.10863
0.107339 -0.0574848 0.0977602
0.11659 -0.0734455 0.0926689
0.1233 -0.0883757 0.0926689
0.1233 -0.0734455 0.0802917
0.110814 -0.0574848 0.0926689
0.171182 -0.153249 -0.0158578
0.187143 -0.16921 -0.00714399
0.190346 -0.16921 -0.00309534
0.183998 -0.153249 -0.00309534
0.187143 -0.160979 -0.00309534
0.198012 -0.16921 0.0128653
0.187143 -0.153249 0.00143626
0.193265 -0.153249 0.0128653
0.155221 -0.137288 -0.0183499
0.171182 -0.137288 -0.00721078
0.155221 -0.121328 -0.0086942
0.162568 -0.121328 -0.00309534
0.171182 -0.131581 -0.00309534
0.171182 -0.121328 0.00553645
0.175182 -0.137288 -0.00309534
0.186115 -0.137288 0.0128653
0.187143 -0.139295 0.0128653
0.176219 -0.121328 0.0128653
0.200248 -0.16921 0.028826
0.196792 -0.153249 0.028826
0.198326 -0.16921 0.0447867
0.195919 -0.153249 0.0447867
0.187143 -0.137288 0.0151327
0.191153 -0.137288 0.028826
0.182351 -0.121328 0.028826
0.187143 -0.129503 0.028826
0.191422 -0.137288 0.0447867
0.183897 -0.121328 0.0447867
0.187143 -0.127627 0.0447867
0.144746 -0.105367 -0.00309534
0.155221 -0.113897 -0.00309534
0.155221 -0.105367 0.00438348
0.162976 -0.105367 0.0128653
0.171182 -0.114742 0.0128653
0.14432 -0.0894062 0.0128653
0.155221 -0.0978982 0.0128653
0.170965 -0.105367 0.028826
0.171182 -0.105627 0.028826
0.155094 -0.0894062 0.028826
0.155221 -0.0895115 0.028826
0.171182 -0.105367 0.0295784
0.155221 -0.0894062 0.0292448
0.157746 -0.0894062 0.0447867
0.171182 -0.102279 0.0447867
0.173634 -0.105367 0.0447867
0.155221 -0.0874867 0.0447867
0.192615 -0.16921 0.0607475
0.190912 -0.153249 0.0607475
0.183171 -0.16921 0.0767082
0.187143 -0.16921 0.0705123
0.18213 -0.153249 0.0767082
0.187143 -0.153249 0.0681409
0.187209 -0.137288 0.0607475
0.181197 -0.121328 0.0607475
0.187143 -0.137091 0.0607475
0.179281 -0.137288 0.0767082
0.187143 -0.137288 0.0608996
0.174046 -0.121328 0.0767082
0.169385 -0.16921 0.0926689
0.171182 -0.16921 0.0909901
0.169584 -0.153249 0.0926689
0.171182 -0.153249 0.0909976
0.145234 -0.16921 0.10863
0.155221 -0.16921 0.103733
0.149816 -0.153249 0.10863
0.155221 -0.153249 0.105297
0.167489 -0.137288 0.0926689
0.171182 -0.137288 0.0883271
0.161838 -0.121328 0.0926689
0.171182 -0.121328 0.0811063
0.148836 -0.137288 0.10863
0.155221 -0.137288 0.104238
0.155221 -0.121328 0.0987637
0.153286 -0.0894062 0.0607475
0.155221 -0.0906688 0.0607475
0.155221 -0.0894062 0.0573624
0.171182 -0.104979 0.0607475
0.163003 -0.105367 0.0767082
0.171182 -0.115861 0.0767082
0.171182 -0.105367 0.0616129
0.139748 -0.0894062 0.0767082
0.155221 -0.0988392 0.0767082
0.17148 -0.105367 0.0607475
0.145029 -0.105367 0.0926689
0.155221 -0.112682 0.0926689
0.155221 -0.105367 0.0851764
0.107339 -0.296895 0.113297
0.1233 -0.306371 0.12459
0.1233 -0.296895 0.120568
0.13926 -0.300075 0.12459
0.13926 -0.296895 0.123227
0.1233 -0.280935 0.111632
0.13926 -0.280935 0.11475
0.013072 -0.18517 0.156512
0.0241448 -0.18517 0.172472
0.0141001 -0.201131 0.188433
0.0256935 -0.18517 0.188433
0.0177915 -0.201131 0.204394
0.0242845 -0.18517 0.204394
0.017206 -0.201131 0.220354
0.0212552 -0.18517 0.220354
0.0154559 -0.201131 0.236315
0.0169623 -0.18517 0.236315
0.155221 -0.305596 0.12459
0.155221 -0.296895 0.12165
0.171182 -0.296895 0.113769
0.155221 -0.280935 0.113185
0.0221231 -0.153249 0.12459
0.0164276 -0.16921 0.140551
0.0266155 -0.153249 0.140551
0.0754177 -0.153249 0.108792
0.0275355 -0.146988 0.12459
0.0359058 -0.137288 0.12459
0.0434963 -0.137288 0.117008
0.0434963 -0.12794 0.12459
0.0275355 -0.149792 0.140551
0.0294448 -0.137288 0.140551
0.02873 -0.121328 0.140551
0.0434963 -0.121328 0.127997
0.0594569 -0.137288 0.115972
0.0754177 -0.137288 0.116965
0.0553093 -0.121328 0.12459
0.0594569 -0.121328 0.123967
0.0754177 -0.121328 0.122339
0.0259959 -0.16921 0.156512
0.027448 -0.153249 0.156512
0.0275355 -0.172252 0.172472
0.0275355 -0.16921 0.166641
0.0277173 -0.16921 0.172472
0.0238898 -0.153249 0.172472
0.0275355 -0.165029 0.172472
0.0230812 -0.137288 0.156512
0.0275355 -0.137288 0.145817
0.0275355 -0.121328 0.14181
0.107339 -0.16921 0.112737
0.0913784 -0.153249 0.113662
0.107339 -0.153249 0.116613
0.1233 -0.16921 0.113443
0.13926 -0.16921 0.110605
0.1233 -0.153249 0.116918
0.13926 -0.153249 0.113573
0.0913784 -0.137288 0.116881
0.107339 -0.137288 0.117375
0.0913784 -0.121328 0.118644
0.107339 -0.121328 0.115123
0.1233 -0.137288 0.117079
0.13926 -0.137288 0.113276
0.1233 -0.121328 0.112512
0.0270375 -0.105367 0.140551
0.0275355 -0.114919 0.140551
0.0275355 -0.105367 0.140252
0.0434963 -0.105367 0.13254
0.0275355 -0.0991581 0.140551
0.0313414 -0.0894062 0.140551
0.0434963 -0.0894062 0.136404
0.0594569 -0.119366 0.12459
0.0754177 -0.106127 0.12459
0.0594569 -0.105367 0.128136
0.0754177 -0.105367 0.124651
0.0594569 -0.0894062 0.130661
0.0754177 -0.0894062 0.124877
0.0434963 -0.0766955 0.140551
0.0467056 -0.0734455 0.140551
0.0594569 -0.0734455 0.134701
0.0754177 -0.0734455 0.12519
0.0591904 -0.0574848 0.140551
0.0594569 -0.0574848 0.140398
0.0754177 -0.0574848 0.128671
0.0275355 -0.0894062 0.141735
0.0275355 -0.0734455 0.145743
0.0434963 -0.0734455 0.141742
0.0275355 -0.0574848 0.149805
0.0434963 -0.0574848 0.1472
0.0756345 -0.105367 0.12459
0.0913784 -0.105367 0.119127
0.107339 -0.105367 0.111632
0.0761465 -0.0894062 0.12459
0.0913784 -0.0894062 0.118366
0.0763882 -0.0734455 0.12459
0.0913784 -0.0734455 0.115947
0.0799583 -0.0574848 0.12459
0.0913784 -0.0574848 0.114383
0.0255846 -0.16921 0.188433
0.0275355 -0.16921 0.176199
0.0203463 -0.16921 0.204394
0.0133879 -0.201131 0.252276
-0.116111 -0.0566211 0.028826
-0.116111 -0.0507258 0.0447867
-0.117191 0.0382795 0.0128653
-0.116111 0.0367724 0.0128653
-0.116111 0.0382795 0.00201859
-0.125599 0.0542401 -0.00309534
-0.116111 0.0393194 -0.00309534
-0.141726 0.0702009 -0.00309534
-0.132072 0.06263 -0.00309534
-0.127901 0.0542401 0.0128653
-0.142438 0.0702009 0.0128653
-0.132072 0.0597414 0.0128653
-0.117254 0.0382795 0.028826
-0.116111 0.0367447 0.028826
-0.116111 0.0382795 0.0426001
-0.129001 0.0542401 0.028826
-0.141208 0.0702009 0.028826
-0.132072 0.0583093 0.028826
-0.128973 0.0542401 0.0447867
-0.116111 0.038651 0.0447867
-0.139335 0.0702009 0.0447867
-0.132072 0.0583411 0.0447867
-0.116111 -0.0499111 0.0607475
-0.116111 -0.0547326 0.0767082
-0.127448 0.0542401 0.0607475
-0.116111 0.0415658 0.0607475
-0.137058 0.0702009 0.0607475
-0.132072 0.0606477 0.0607475
-0.124278 0.0542401 0.0767082
-0.116111 0.0452874 0.0767082
-0.133731 0.0702009 0.0767082
-0.132072 0.066643 0.0767082
-0.119783 0.0542401 0.0926689
-0.116111 0.0500403 0.0926689
-0.132072 0.0702009 0.0827816
-0.12878 0.0702009 0.0926689
-0.116111 0.0542401 0.102104
-0.121525 0.0702009 0.10863
-0.116111 0.0586037 0.10863
-0.0841894 -0.0519623 -0.00309534
-0.10015 -0.0495455 0.0128653
-0.0944832 -0.0415241 0.0128653
-0.0841894 -0.0415241 0.00155554
-0.0892887 -0.0255634 0.0128653
-0.0841894 -0.0255634 0.0057876
-0.0798389 -0.0415241 -0.00309534
-0.0682287 -0.0415241 -0.0148727
-0.0775596 -0.0255634 -0.00309534
-0.0682287 -0.0255634 -0.0149687
-0.0910261 0.00635806 -0.00309534
-0.0841894 -0.00434586 -0.00309534
-0.0841894 0.00635806 -0.0172849
-0.0905825 -0.0096027 0.0128653
-0.0841894 -0.0096027 0.00137793
-0.0962699 0.00635806 0.0128653
-0.0815258 -0.0096027 -0.00309534
-0.104991 -0.0415241 0.028826
-0.10015 -0.0415241 0.0203312
-0.10015 -0.0296066 0.028826
-0.0991097 -0.0255634 0.028826
-0.109849 -0.0415241 0.0447867
-0.103779 -0.0255634 0.0447867
-0.10015 -0.0255634 0.0315952
-0.0975141 -0.0096027 0.028826
-0.0992562 0.00635806 0.028826
-0.100653 -0.0096027 0.0447867
-0.10015 -0.0096027 0.0415612
-0.100397 0.00635806 0.0447867
-0.10015 0.00635806 0.0406266
-0.103677 0.0223188 -0.00309534
-0.10015 0.0182943 -0.00309534
-0.10015 0.0223188 -0.0163817
-0.115423 0.0382795 -0.00309534
-0.105605 0.0223188 0.0128653
-0.10015 0.0138391 0.0128653
-0.106148 0.0223188 0.028826
-0.10015 0.00949671 0.028826
-0.105672 0.0223188 0.0447867
-0.115827 0.0382795 0.0447867
-0.110876 -0.0415241 0.0607475
-0.104903 -0.0255634 0.0607475
-0.108459 -0.0415241 0.0767082
-0.103149 -0.0255634 0.0767082
-0.101495 -0.0096027 0.0607475
-0.100373 0.00635806 0.0607475
-0.10015 -0.0110189 0.0767082
-0.10015 -0.0096027 0.0753807
-0.0999443 -0.0096027 0.0767082
-0.10015 0.00635806 0.0637406
-0.0987201 0.00635806 0.0767082
-0.102265 -0.0415241 0.0926689
-0.10015 -0.0354881 0.0926689
-0.10015 -0.0255634 0.0868477
-0.0977732 -0.0255634 0.0926689
-0.10015 -0.0415241 0.0960204
-0.0908141 -0.0415241 0.10863
-0.0894063 -0.0255634 0.10863
-0.0956582 -0.0096027 0.0926689
-0.0947681 0.00635806 0.0926689
-0.0887275 -0.0096027 0.10863
-0.0882966 0.00635806 0.10863
-0.103868 0.0223188 0.0607475
-0.11334 0.0382795 0.0607475
-0.100709 0.0223188 0.0767082
-0.10015 0.0202019 0.0767082
-0.109636 0.0382795 0.0767082
-0.10015 0.0223188 0.0789007
-0.0958155 0.0223188 0.0926689
-0.104449 0.0382795 0.0926689
-0.10015 0.0319915 0.0926689
-0.0889917 0.0223188 0.10863
-0.10015 0.0382795 0.102958
-0.0974853 0.0382795 0.10863
-0.11317 0.0542401 0.10863
-0.10015 0.0410397 0.10863
-0.213455 0.102122 -0.00309534
-0.211875 0.0999808 -0.00309534
-0.211875 0.102122 -0.000723465
-0.197875 0.0861616 -0.00309534
-0.195914 0.0847421 -0.00309534
-0.179954 0.0776566 -0.00309534
-0.195914 0.0861616 4.14235e-06
-0.183226 0.0861616 0.0128653
-0.179954 0.0845361 0.0128653
-0.202053 0.102122 0.0128653
-0.195914 0.0946057 0.0128653
-0.227836 0.118083 -0.0116462
-0.220972 0.118083 -0.00309534
-0.227836 0.134044 -0.00934059
-0.22227 0.134044 -0.00309534
-0.211875 0.118083 0.00929193
-0.211875 0.134044 0.0101283
-0.209054 0.118083 0.0128653
-0.209535 0.134044 0.0128653
-0.179954 0.0861616 0.0152507
-0.195914 0.102122 0.0193963
-0.182621 0.102122 0.028826
-0.179954 0.0997567 0.028826
-0.179954 0.102122 0.0304437
-0.195914 0.118083 0.0263118
-0.192261 0.118083 0.028826
-0.195914 0.134044 0.0264064
-0.192374 0.134044 0.028826
-0.179954 0.118083 0.0363328
-0.179954 0.134044 0.0364365
-0.163993 0.075184 -0.00309534
-0.148032 0.0729017 -0.00309534
-0.163993 0.0798606 0.0128653
-0.148032 0.0740664 0.0128653
-0.163993 0.0861616 0.0245835
-0.158986 0.0861616 0.028826
-0.148032 0.078035 0.028826
-0.163993 0.0895374 0.028826
-0.148032 0.0861616 0.0425133
-0.163993 0.102122 0.0392546
-0.156548 0.102122 0.0447867
-0.148032 0.0884016 0.0447867
-0.146885 0.0861616 0.0447867
-0.163993 0.118083 0.0446796
-0.163832 0.118083 0.0447867
-0.165168 0.134044 0.0447867
-0.163993 0.119201 0.0447867
-0.227836 0.150004 -0.0139045
-0.21784 0.150004 -0.00309534
-0.211875 0.159878 -0.00309534
-0.211875 0.165965 -0.00938808
-0.211875 0.150004 0.00429339
-0.20677 0.165965 -0.00309534
-0.204229 0.150004 0.0128653
-0.195914 0.161269 0.0128653
-0.195914 0.165965 0.00825991
-0.189854 0.165965 0.0128653
-0.195914 0.174096 -0.00309534
-0.179954 0.179857 -0.00309534
-0.179954 0.181926 -0.00885211
-0.179954 0.171027 0.0128653
-0.195914 0.150004 0.0208411
-0.18392 0.150004 0.028826
-0.179954 0.153938 0.028826
-0.179954 0.165965 0.0189995
-0.179954 0.150004 0.0311877
-0.166232 0.181926 -0.00309534
-0.163993 0.182325 -0.00309534
-0.148032 0.191151 -0.00309534
-0.163993 0.176469 0.0128653
-0.163993 0.181926 -0.00185256
-0.15564 0.181926 0.0128653
-0.148032 0.192369 0.0128653
-0.143261 0.197887 -0.00309534
-0.145551 0.197887 0.0128653
-0.164378 0.165965 0.028826
-0.163993 0.142512 0.0447867
-0.163993 0.150004 0.0417421
-0.161021 0.150004 0.0447867
-0.163993 0.165965 0.0291879
-0.155119 0.165965 0.0447867
-0.163993 0.166272 0.028826
-0.152121 0.181926 0.028826
-0.148032 0.192895 0.028826
-0.150798 0.181926 0.0447867
-0.148032 0.191793 0.0447867
-0.146414 0.197887 0.028826
-0.146128 0.197887 0.0447867
-0.148032 0.102122 0.055224
-0.141738 0.0861616 0.0607475
-0.145642 0.102122 0.0607475
-0.138849 0.0861616 0.0767082
-0.142671 0.102122 0.0767082
-0.149693 0.118083 0.0607475
-0.148032 0.111274 0.0607475
-0.163993 0.134044 0.0456694
-0.152361 0.134044 0.0607475
-0.148032 0.118083 0.0656294
-0.148759 0.134044 0.0767082
-0.148032 0.129996 0.0767082
-0.145743 0.118083 0.0767082
-0.134862 0.0861616 0.0926689
-0.132072 0.0786919 0.0926689
-0.139686 0.102122 0.0926689
-0.132072 0.0861616 0.0990785
-0.127105 0.0861616 0.10863
-0.132214 0.102122 0.10863
-0.132072 0.101608 0.10863
-0.148032 0.134044 0.0811038
-0.143021 0.118083 0.0926689
-0.145772 0.134044 0.0926689
-0.135748 0.118083 0.10863
-0.138708 0.134044 0.10863
-0.152884 0.150004 0.0607475
-0.151575 0.165965 0.0607475
-0.150371 0.150004 0.0767082
-0.149039 0.165965 0.0767082
-0.14896 0.181926 0.0607475
-0.148032 0.18558 0.0607475
-0.148032 0.171505 0.0767082
-0.148032 0.181926 0.0656836
-0.144163 0.197887 0.0607475
-0.145516 0.181926 0.0767082
-0.140202 0.197887 0.0767082
-0.148032 0.150004 0.0896009
-0.148032 0.165965 0.0819873
-0.147338 0.150004 0.0926689
-0.14548 0.165965 0.0926689
-0.140602 0.150004 0.10863
-0.138908 0.165965 0.10863
-0.140602 0.181926 0.0926689
-0.133374 0.197887 0.0926689
-0.132932 0.181926 0.10863
-0.132072 0.183628 0.10863
-0.132072 0.197887 0.0951227
-0.124611 0.197887 0.10863
-0.116111 0.0702009 0.118072
-0.0841894 -0.0415241 0.116094
-0.0841894 -0.0255634 0.116217
-0.0754611 -0.0415241 0.12459
-0.0770647 -0.0255634 0.12459
-0.0682287 -0.0415241 0.131575
-0.0561266 -0.0415241 0.140551
-0.052268 -0.0515124 0.140551
-0.0682287 -0.0255634 0.133572
-0.0589798 -0.0255634 0.140551
-0.0841894 -0.0096027 0.116199
-0.0841894 0.00635806 0.116082
-0.0776324 -0.0096027 0.12459
-0.078174 0.00635806 0.12459
-0.0682287 -0.0096027 0.134363
-0.0601195 -0.0096027 0.140551
-0.0682287 0.00635806 0.135751
-0.0624876 0.00635806 0.140551
-0.052268 -0.0415241 0.142929
-0.052268 -0.0255634 0.144712
-0.052268 -0.0096027 0.145491
-0.052268 0.00635806 0.147441
-0.0363073 -0.0415241 0.149519
-0.0203466 -0.0415241 0.152384
-0.0363073 -0.0255634 0.151018
-0.0203466 -0.0255634 0.154139
-0.00438592 -0.0415241 0.153124
0.0115748 -0.0415241 0.153099
-0.00438592 -0.0255634 0.155536
0.0115748 -0.0255634 0.155677
-0.0363073 -0.0096027 0.152345
-0.0215592 -0.0096027 0.156512
-0.0203466 -0.0111906 0.156512
-0.0363073 0.00635806 0.155119
-0.0325711 0.00635806 0.156512
-0.0203466 -0.0096027 0.156813
-0.0203466 0.00635806 0.160096
-0.00438592 -0.0201267 0.156512
0.0115748 -0.0181508 0.156512
-0.00438592 -0.0096027 0.158312
0.0115748 -0.0096027 0.157222
-0.00438592 0.00635806 0.16016
0.0115748 0.00635806 0.157652
-0.0841894 0.0223188 0.117296
-0.0877953 0.0382795 0.12459
-0.0841894 0.0334396 0.12459
-0.0841894 0.0382795 0.129397
-0.0791114 0.0223188 0.12459
-0.0682287 0.0223188 0.13712
-0.0643501 0.0223188 0.140551
-0.0737261 0.0382795 0.140551
-0.0682287 0.0309686 0.140551
-0.104138 0.0542401 0.12459
-0.10015 0.0499656 0.12459
-0.111707 0.0702009 0.12459
-0.10015 0.0542401 0.130106
-0.091569 0.0542401 0.140551
-0.0841894 0.0469146 0.140551
-0.10015 0.0702009 0.139669
-0.0993791 0.0702009 0.140551
-0.052268 0.0223188 0.149149
-0.0682287 0.0382795 0.145014
-0.052268 0.0382795 0.154628
-0.0841894 0.0542401 0.14788
-0.0841894 0.0702009 0.155908
-0.0723552 0.0542401 0.156512
-0.0682287 0.0510977 0.156512
-0.052268 0.0411294 0.156512
-0.0834352 0.0702009 0.156512
-0.0682287 0.0542401 0.159097
-0.052268 0.0542401 0.166228
-0.0682287 0.0702009 0.167018
-0.0552432 0.0702009 0.172472
-0.052268 0.0673944 0.172472
-0.0373504 0.0223188 0.156512
-0.0363073 0.0188174 0.156512
-0.0482265 0.0382795 0.156512
-0.0363073 0.0223188 0.156967
-0.0203466 0.0223188 0.161392
-0.0363073 0.0382795 0.160833
-0.0203466 0.0382795 0.163671
-0.00438592 0.0223188 0.161453
0.0115748 0.0223188 0.15943
-0.00438592 0.0382795 0.164395
0.0115748 0.0382795 0.163509
-0.0363073 0.0542401 0.169707
-0.0203466 0.0542401 0.169751
-0.0363073 0.0592086 0.172472
-0.0203466 0.0597837 0.172472
-0.00438592 0.0542401 0.168692
0.0115748 0.0542401 0.167808
-0.00438592 0.0655354 0.172472
0.0115748 0.07006 0.172472
-0.052268 0.0702009 0.173514
-0.0363073 0.0702009 0.177674
-0.0203466 0.0702009 0.177795
-0.00438592 0.0702009 0.174319
0.0115748 0.0702009 0.172521
-0.116705 0.0861616 0.12459
-0.116111 0.0841049 0.12459
-0.132072 0.102122 0.108849
-0.120965 0.102122 0.12459
-0.116111 0.0861616 0.125405
-0.116111 0.102122 0.131038
-0.132072 0.118083 0.113977
-0.123826 0.118083 0.12459
-0.132072 0.134044 0.118063
-0.126814 0.134044 0.12459
-0.116111 0.118083 0.135083
-0.116111 0.134044 0.139495
-0.132072 0.150004 0.121226
-0.129434 0.150004 0.12459
-0.132072 0.165965 0.119358
-0.128208 0.165965 0.12459
-0.117673 0.150004 0.140551
-0.116111 0.137346 0.140551
-0.116111 0.164618 0.140551
-0.116111 0.165965 0.140135
-0.132072 0.181926 0.110054
-0.122611 0.181926 0.12459
-0.116111 0.194942 0.12459
-0.116111 0.197887 0.122348
-0.116111 0.181926 0.133197
-0.116111 0.150004 0.142457
-0.104175 0.0861616 0.140551
-0.10015 0.0725155 0.140551
-0.108759 0.102122 0.140551
-0.112179 0.118083 0.140551
-0.115353 0.134044 0.140551
-0.10015 0.0861616 0.145532
-0.0899817 0.0861616 0.156512
-0.0841894 0.0718476 0.156512
-0.10015 0.102122 0.151953
-0.0961063 0.102122 0.156512
-0.0841894 0.0861616 0.162001
-0.0841894 0.102122 0.167637
-0.0682287 0.0861616 0.172125
-0.067484 0.0861616 0.172472
-0.0764694 0.102122 0.172472
-0.0682287 0.0872318 0.172472
-0.10015 0.118083 0.156405
-0.100052 0.118083 0.156512
-0.102171 0.134044 0.156512
-0.10015 0.118697 0.156512
-0.0841894 0.118083 0.170779
-0.10015 0.134044 0.158507
-0.0841894 0.134044 0.171498
-0.0815226 0.118083 0.172472
-0.0826122 0.134044 0.172472
-0.115738 0.165965 0.140551
-0.11449 0.197887 0.12459
-0.109496 0.181926 0.140551
-0.101502 0.197887 0.140551
-0.102453 0.150004 0.156512
-0.10015 0.163173 0.156512
-0.10015 0.165965 0.155839
-0.0993522 0.165965 0.156512
-0.10015 0.150004 0.158749
-0.0841894 0.150004 0.171
-0.0841894 0.165965 0.168653
-0.0817117 0.150004 0.172472
-0.0776828 0.165965 0.172472
-0.10015 0.181926 0.149945
-0.0926723 0.181926 0.156512
-0.10015 0.197887 0.141843
-0.0841894 0.196775 0.156512
-0.0841894 0.197887 0.155939
-0.0841894 0.181926 0.163544
-0.08345 0.197887 0.156512
-0.0691187 0.181926 0.172472
-0.0682287 0.183181 0.172472
-0.0682287 0.197887 0.166827
-0.0556775 0.197887 0.172472
-0.052268 0.0861616 0.178223
-0.0682287 0.102122 0.17657
-0.052268 0.102122 0.181624
-0.0682287 0.118083 0.179232
-0.052268 0.118083 0.183997
-0.0682287 0.134044 0.179677
-0.052268 0.134044 0.184424
-0.0363073 0.0861616 0.182367
-0.0203466 0.0861616 0.184367
-0.0363073 0.102122 0.185743
-0.0218993 0.102122 0.188433
-0.0203466 0.101161 0.188433
-0.0203466 0.102122 0.188637
-0.00438592 0.0861616 0.182826
0.0115748 0.0861616 0.181381
-0.00438592 0.0988644 0.188433
0.0115748 0.0999842 0.188433
-0.00438592 0.102122 0.189501
0.0115748 0.102122 0.189236
-0.0363073 0.118083 0.188215
-0.0354485 0.118083 0.188433
-0.0380912 0.134044 0.188433
-0.0363073 0.120961 0.188433
-0.0203466 0.118083 0.191421
-0.0363073 0.134044 0.188932
-0.0203466 0.134044 0.192369
-0.00438592 0.118083 0.192686
0.0115748 0.118083 0.19262
-0.00438592 0.134044 0.193693
0.0115748 0.134044 0.193633
-0.0682287 0.150004 0.179051
-0.052268 0.150004 0.183811
-0.0682287 0.165965 0.177106
-0.052268 0.165965 0.182549
-0.0682287 0.181926 0.172915
-0.052268 0.181926 0.179239
-0.052268 0.197887 0.173803
-0.0363073 0.14999 0.188433
-0.0363073 0.150004 0.188432
-0.0363037 0.150004 0.188433
-0.0363073 0.165965 0.187632
-0.0335985 0.165965 0.188433
-0.0203466 0.150004 0.192073
-0.0203466 0.165965 0.191462
-0.00438592 0.150004 0.193572
0.0115748 0.150004 0.193738
-0.00438592 0.165965 0.193041
0.0115748 0.165965 0.193228
-0.0363073 0.181926 0.184707
-0.021393 0.181926 0.188433
-0.0363073 0.197887 0.179388
-0.0203466 0.182592 0.188433
-0.0203466 0.197887 0.183503
-0.0203466 0.181926 0.188633
-0.00438592 0.189125 0.188433
-0.00438592 0.197887 0.185971
0.0115748 0.190042 0.188433
0.0115748 0.197887 0.18649
-0.00438592 0.181926 0.190376
0.0115748 0.181926 0.190455
-0.133775 0.213847 -0.00309534
-0.132072 0.213847 -0.0106736
-0.132072 0.215708 -0.00309534
-0.116111 0.22867 -0.00309534
-0.135615 0.213847 0.0128653
-0.132072 0.217309 0.0128653
-0.11638 0.229808 0.0128653
-0.116111 0.229808 0.0110646
-0.116111 0.230035 0.0128653
-0.136943 0.213847 0.028826
-0.132072 0.219195 0.028826
-0.121457 0.229808 0.028826
-0.137553 0.213847 0.0447867
-0.132072 0.221013 0.0447867
-0.124764 0.229808 0.0447867
-0.116111 0.235482 0.028826
-0.116111 0.239876 0.0447867
-0.135968 0.213847 0.0607475
-0.132072 0.219505 0.0607475
-0.124479 0.229808 0.0607475
-0.132072 0.213332 0.0767082
-0.132072 0.213847 0.0756816
-0.131742 0.213847 0.0767082
-0.121287 0.229808 0.0767082
-0.116111 0.240248 0.0607475
-0.116111 0.23675 0.0767082
-0.132072 0.200483 0.0926689
-0.125009 0.213847 0.0926689
-0.116111 0.228127 0.0926689
-0.116111 0.229808 0.0903232
-0.116111 0.213166 0.10863
-0.116111 0.213847 0.107989
-0.114566 0.229808 -0.00309534
-0.10015 0.242346 -0.00309534
-0.0964977 0.245769 -0.00309534
-0.0841894 0.25901 -0.00309534
-0.100415 0.245769 0.0128653
-0.10015 0.245769 0.0119556
-0.10015 0.2461 0.0128653
-0.0870468 0.261729 0.0128653
-0.0841894 0.261729 0.00501985
-0.0816269 0.261729 -0.00309534
-0.106153 0.245769 0.028826
-0.10015 0.252815 0.028826
-0.0925694 0.261729 0.028826
-0.110181 0.245769 0.0447867
-0.10015 0.256182 0.0447867
-0.0950025 0.261729 0.0447867
-0.0841894 0.265029 0.0128653
-0.0682287 0.277088 -0.00309534
-0.0676797 0.27769 -0.00309534
-0.052365 0.293651 -0.00309534
-0.052268 0.293651 -0.0037116
-0.0727928 0.27769 0.0128653
-0.0682287 0.27769 -0.00114965
-0.0682287 0.282914 0.0128653
-0.056775 0.293651 0.0128653
-0.052268 0.293734 -0.00309534
-0.052268 0.297153 0.0128653
-0.0841894 0.271985 0.028826
-0.0841894 0.274924 0.0447867
-0.0790462 0.27769 0.028826
-0.0682287 0.288736 0.028826
-0.0620552 0.293651 0.028826
-0.0817031 0.27769 0.0447867
-0.0682287 0.290516 0.0447867
-0.0637524 0.293651 0.0447867
-0.052268 0.300316 0.028826
-0.052268 0.30077 0.0447867
-0.0363073 0.304712 -0.00309534
-0.024242 0.309611 -0.00309534
-0.0203466 0.310873 -0.00309534
-0.0363073 0.306344 0.0128653
-0.0285677 0.309611 0.0128653
-0.0203466 0.312497 0.0128653
-0.00438592 0.313549 -0.00309534
0.0115748 0.313593 -0.00309534
-0.00438592 0.314795 0.0128653
0.0115748 0.31433 0.0128653
-0.0363073 0.308423 0.028826
-0.0336096 0.309611 0.028826
-0.0203466 0.314437 0.028826
-0.0363073 0.308444 0.0447867
-0.0334903 0.309611 0.0447867
-0.0203466 0.314086 0.0447867
-0.00438592 0.316286 0.028826
0.0115748 0.315271 0.028826
-0.00438592 0.315831 0.0447867
0.0115748 0.314678 0.0447867
-0.110765 0.245769 0.0607475
-0.10015 0.256673 0.0607475
-0.095185 0.261729 0.0607475
-0.108225 0.245769 0.0767082
-0.10015 0.254997 0.0767082
-0.0937015 0.261729 0.0767082
-0.114948 0.229808 0.0926689
-0.115691 0.213847 0.10863
-0.105777 0.229808 0.10863
-0.102732 0.245769 0.0926689
-0.10015 0.248819 0.0926689
-0.0881473 0.261729 0.0926689
-0.10015 0.237545 0.10863
-0.10015 0.245769 0.0976283
-0.0934883 0.245769 0.10863
-0.0841894 0.255542 0.10863
-0.0841894 0.261729 0.0992588
-0.0772346 0.261729 0.10863
-0.0841894 0.273886 0.0607475
-0.0841894 0.271067 0.0767082
-0.0803648 0.27769 0.0607475
-0.0682287 0.288635 0.0607475
-0.0606411 0.293651 0.0607475
-0.0761327 0.27769 0.0767082
-0.0682287 0.284286 0.0767082
-0.0539224 0.293651 0.0767082
-0.052268 0.298574 0.0607475
-0.052268 0.294607 0.0767082
-0.0841894 0.265334 0.0926689
-0.0682658 0.27769 0.0926689
-0.0682287 0.27772 0.0926689
-0.052268 0.288518 0.0926689
-0.052268 0.293651 0.0796257
-0.0682287 0.269434 0.10863
-0.0682287 0.27769 0.0927297
-0.0567315 0.27769 0.10863
-0.052268 0.28047 0.10863
-0.0363073 0.305831 0.0607475
-0.0245561 0.309611 0.0607475
-0.0203466 0.310758 0.0607475
-0.0363073 0.301635 0.0767082
-0.0203466 0.30589 0.0767082
-0.0203466 0.309611 0.0645597
-0.00438592 0.312747 0.0607475
0.0115748 0.312021 0.0607475
-0.00438592 0.308098 0.0767082
-0.00438592 0.309611 0.0716195
0.0115748 0.308171 0.0767082
0.0115748 0.309611 0.0708684
-0.0416554 0.293651 0.0926689
-0.0363073 0.287661 0.10863
-0.0363073 0.293651 0.0969753
-0.0203466 0.292272 0.10863
-0.0203466 0.293651 0.105971
-0.014271 0.293651 0.10863
-0.0363073 0.295748 0.0926689
-0.0203466 0.300173 0.0926689
-0.00438592 0.30252 0.0926689
0.0115748 0.303076 0.0926689
-0.00438592 0.295342 0.10863
0.0115748 0.296166 0.10863
-0.104571 0.213847 0.12459
-0.10015 0.220212 0.12459
-0.10015 0.229808 0.116401
-0.0931783 0.229808 0.12459
-0.10015 0.199981 0.140551
-0.10015 0.213847 0.129966
-0.0898379 0.213847 0.140551
-0.0841894 0.22059 0.140551
-0.0841894 0.229808 0.133709
-0.076678 0.229808 0.140551
-0.0841894 0.241154 0.12459
-0.0841894 0.245769 0.120234
-0.079993 0.245769 0.12459
-0.0682287 0.257938 0.12459
-0.0682287 0.261729 0.119998
-0.0641596 0.261729 0.12459
-0.0682287 0.240906 0.140551
-0.0682287 0.245769 0.136706
-0.0641152 0.245769 0.140551
-0.052268 0.256627 0.140551
-0.052268 0.261729 0.135389
-0.0841894 0.213847 0.145609
-0.0704905 0.213847 0.156512
-0.0682287 0.216662 0.156512
-0.0682287 0.229808 0.148242
-0.0573516 0.229808 0.156512
-0.0682287 0.213847 0.158239
-0.052268 0.201472 0.172472
-0.052268 0.213847 0.16761
-0.052268 0.229808 0.159877
-0.052268 0.235332 0.156512
-0.052268 0.245769 0.149655
-0.044824 0.261729 0.140551
-0.0406047 0.213847 0.172472
-0.0363073 0.21794 0.172472
-0.0363073 0.229808 0.167589
-0.0203466 0.229758 0.172472
-0.0203466 0.229808 0.172451
-0.0202646 0.229808 0.172472
-0.0398656 0.245769 0.156512
-0.0363073 0.248346 0.156512
-0.0363073 0.261729 0.145593
-0.0203466 0.256855 0.156512
-0.0203466 0.261729 0.152452
-0.0363073 0.245769 0.158326
-0.0203466 0.245769 0.164314
-0.00438592 0.260554 0.156512
-0.00438592 0.261729 0.155499
0.0115748 0.260837 0.156512
0.0115748 0.261729 0.155726
-0.00438592 0.23629 0.172472
-0.00438592 0.245769 0.167326
0.0115748 0.237801 0.172472
0.0115748 0.245769 0.167836
-0.052268 0.270679 0.12459
-0.052268 0.27769 0.113487
-0.0380544 0.27769 0.12459
-0.0363073 0.278468 0.12459
-0.0203466 0.283699 0.12459
-0.0363073 0.266555 0.140551
-0.0363073 0.27769 0.125763
-0.0203466 0.273002 0.140551
-0.0203466 0.27769 0.133988
-0.00438592 0.286753 0.12459
-0.00438592 0.293651 0.111904
0.0115748 0.287348 0.12459
0.0115748 0.293651 0.113503
-0.00438592 0.275881 0.140551
-0.00438592 0.27769 0.138065
0.0115748 0.276057 0.140551
0.0115748 0.27769 0.138362
-0.0363073 0.213847 0.174042
-0.0203466 0.213847 0.178743
-0.00438592 0.213847 0.181633
0.0115748 0.213847 0.182577
-0.00438592 0.229808 0.175637
0.0115748 0.229808 0.176562
0.0754177 -0.0415241 -0.0139079
0.0754177 -0.0255634 -0.0172878
0.088013 -0.0415241 -0.00309534
0.0913784 -0.0499144 -0.00309534
0.0879911 -0.0255634 -0.00309534
0.0913784 -0.0415241 0.000438295
0.101854 -0.0415241 0.0128653
0.107339 -0.049971 0.0128653
0.0913784 -0.0255634 0.00203335
0.0978042 -0.0255634 0.0128653
0.0913784 -0.0136566 -0.00309534
0.0913784 -0.0096027 -0.00642137
0.0933582 -0.0096027 -0.00309534
0.102396 0.00635806 -0.00309534
0.100426 -0.0096027 0.0128653
0.107271 0.00635806 0.0128653
0.107339 -0.0415241 0.0218949
0.105387 -0.0255634 0.028826
0.107339 -0.0340517 0.028826
0.107339 -0.0255634 0.0332017
0.110878 -0.0415241 0.028826
0.115855 -0.0415241 0.0447867
0.1233 -0.0545745 0.0447867
0.111745 -0.0255634 0.0447867
0.106169 -0.0096027 0.028826
0.107339 -0.00409704 0.028826
0.107339 0.00635806 0.013137
0.107339 -0.0096027 0.0319008
0.110676 0.00635806 0.028826
0.111718 -0.0096027 0.0447867
0.113187 0.00635806 0.0447867
0.107339 0.0134083 -0.00309534
0.107339 0.00648331 0.0128653
0.114118 0.0223188 -0.00309534
0.1233 0.0368103 -0.00309534
0.1233 0.0382795 -0.00700264
0.12423 0.0382795 -0.00309534
0.117108 0.0223188 0.0128653
0.1233 0.0327313 0.0128653
0.12689 0.0382795 0.0128653
0.136009 0.0542401 -0.00309534
0.13926 0.0575368 -0.00309534
0.139103 0.0542401 0.0128653
0.13926 0.0544115 0.0128653
0.118065 0.0223188 0.028826
0.1233 0.0309496 0.028826
0.128393 0.0382795 0.028826
0.118565 0.0223188 0.0447867
0.1233 0.0301323 0.0447867
0.129419 0.0382795 0.0447867
0.13926 0.0528676 0.028826
0.13926 0.0542401 0.0141316
0.13926 0.0525194 0.0447867
0.116105 -0.0415241 0.0607475
0.113163 -0.0255634 0.0607475
0.112637 -0.0415241 0.0767082
0.1102 -0.0255634 0.0767082
0.113423 -0.0096027 0.0607475
0.113933 0.00635806 0.0607475
0.111054 -0.0096027 0.0767082
0.112116 0.00635806 0.0767082
0.106372 -0.0415241 0.0926689
0.107339 -0.0462708 0.0926689
0.107339 -0.0415241 0.0905991
0.105102 -0.0255634 0.0926689
0.107339 -0.0255634 0.0862924
0.0972202 -0.0415241 0.10863
0.0981245 -0.0255634 0.10863
0.106166 -0.0096027 0.0926689
0.107339 -0.0096027 0.0894028
0.107339 0.00377473 0.0926689
0.0990569 -0.0096027 0.10863
0.0999429 0.00635806 0.10863
0.107339 0.00635806 0.0933006
0.107597 0.00635806 0.0926689
0.117887 0.0223188 0.0607475
0.1233 0.0311768 0.0607475
0.12907 0.0382795 0.0607475
0.115728 0.0223188 0.0767082
0.1233 0.0339187 0.0767082
0.127108 0.0382795 0.0767082
0.139075 0.0542401 0.0607475
0.13926 0.0542401 0.0591189
0.13926 0.0547011 0.0607475
0.136817 0.0542401 0.0767082
0.13926 0.0633185 0.0767082
0.103412 0.0223188 0.10863
0.107339 0.0223188 0.101585
0.107339 0.0286109 0.10863
0.111416 0.0223188 0.0926689
0.123177 0.0382795 0.0926689
0.1233 0.0382795 0.0922954
0.115991 0.0382795 0.10863
0.1233 0.038423 0.0926689
0.133244 0.0542401 0.0926689
0.137314 0.0702009 0.0926689
0.13926 0.0702009 0.0837214
0.1233 0.0483814 0.10863
0.126504 0.0542401 0.10863
0.131932 0.0702009 0.10863
0.155221 0.0657733 -0.00309534
0.171182 0.0669994 -0.00309534
0.155221 0.0653724 0.0128653
0.171182 0.0682804 0.0128653
0.187143 0.0675025 -0.00309534
0.201307 0.0702009 -0.00309534
0.203103 0.0702009 -0.00517704
0.187143 0.0697756 0.0128653
0.188991 0.0702009 0.0128653
0.140409 0.0542401 0.028826
0.155221 0.0682251 0.028826
0.159585 0.0702009 0.028826
0.171182 0.0702009 0.0207618
0.140361 0.0542401 0.0447867
0.150379 0.0702009 0.0447867
0.155221 0.0702009 0.034331
0.187143 0.0702009 0.01448
0.144973 0.0702009 0.0607475
0.140769 0.0702009 0.0767082
0.13926 0.0801439 0.0926689
0.136141 0.0861616 0.10863
0.13926 0.0861616 0.0969508
0.139076 0.102122 0.10863
0.13926 0.102122 0.107845
0.13926 0.10317 0.10863
0.135402 0.197887 0.10863
0.13926 0.182954 0.10863
0.13926 0.197887 0.100329
0.203103 0.0706805 -0.00309534
0.203103 0.0747911 0.0128653
0.171182 0.0734321 0.028826
0.155221 0.0751938 0.0447867
0.171182 0.0832313 0.0447867
0.187143 0.0761962 0.028826
0.203103 0.0832217 0.028826
0.180221 0.0861616 0.0447867
0.187143 0.0861616 0.0422937
0.203103 0.0861616 0.0322424
0.187143 0.0888674 0.0447867
0.201187 0.102122 0.0447867
0.203103 0.102122 0.0434548
0.203103 0.105682 0.0447867
0.219064 0.0758285 -0.00309534
0.235025 0.0830686 -0.00309534
0.219064 0.0836789 0.0128653
0.222477 0.0861616 0.0128653
0.235025 0.0861616 0.00175768
0.235025 0.0977846 0.0128653
0.239379 0.0861616 -0.00309534
0.250985 0.0994293 -0.00309534
0.252467 0.102122 -0.00309534
0.238332 0.102122 0.0128653
0.250985 0.102122 -0.000508576
0.257365 0.118083 -0.00309534
0.257069 0.134044 -0.00309534
0.244219 0.118083 0.0128653
0.250985 0.118083 0.00648651
0.242171 0.134044 0.0128653
0.250985 0.134044 0.00495453
0.206927 0.0861616 0.028826
0.219064 0.0861616 0.016178
0.219064 0.101813 0.028826
0.219232 0.102122 0.028826
0.235025 0.102122 0.0153918
0.219064 0.102122 0.0289888
0.223811 0.118083 0.028826
0.235025 0.118083 0.0198326
0.222541 0.134044 0.028826
0.235025 0.134044 0.018265
0.206358 0.118083 0.0447867
0.219064 0.118083 0.0332689
0.205336 0.134044 0.0447867
0.219064 0.134044 0.0321571
0.168857 0.181926 -0.00309534
0.171182 0.180728 -0.00309534
0.149524 0.197887 -0.00309534
0.155221 0.191859 -0.00309534
0.171182 0.181926 0.00283106
0.154311 0.197887 0.0128653
0.155221 0.196855 0.0128653
0.171182 0.18311 0.0128653
0.187143 0.175619 -0.00309534
0.203103 0.171059 -0.00309534
0.173313 0.181926 0.0128653
0.187143 0.175875 0.0128653
0.203103 0.169425 0.0128653
0.197241 0.165965 0.028826
0.203103 0.161979 0.028826
0.203103 0.165965 0.0224203
0.197027 0.150004 0.0447867
0.203103 0.140902 0.0447867
0.203103 0.150004 0.0401421
0.179089 0.165965 0.0447867
0.187143 0.159326 0.0447867
0.187143 0.165965 0.0379015
0.170175 0.181926 0.028826
0.171182 0.181071 0.028826
0.171182 0.181926 0.0263736
0.154895 0.197887 0.028826
0.155221 0.197466 0.028826
0.163642 0.181926 0.0447867
0.171182 0.172978 0.0447867
0.153364 0.197887 0.0447867
0.155221 0.194611 0.0447867
0.187143 0.171653 0.028826
0.21798 0.165965 -0.00309534
0.219064 0.165552 -0.00309534
0.219064 0.165965 -0.00552841
0.235025 0.15983 -0.00309534
0.235025 0.165965 -0.0184779
0.230981 0.150004 0.0128653
0.235025 0.145727 0.0128653
0.235025 0.150004 0.00947616
0.209557 0.165965 0.0128653
0.219064 0.159794 0.0128653
0.249283 0.150004 -0.00309534
0.250985 0.14803 -0.00309534
0.250985 0.150004 -0.00500593
0.214884 0.150004 0.028826
0.219064 0.143061 0.028826
0.219064 0.150004 0.0244094
0.15374 0.0861616 0.0607475
0.155221 0.0861616 0.059015
0.171182 0.0861616 0.0480257
0.155221 0.0880393 0.0607475
0.169398 0.102122 0.0607475
0.171182 0.102122 0.0598189
0.144819 0.0861616 0.0767082
0.150153 0.102122 0.0767082
0.155221 0.102122 0.0707268
0.187143 0.102122 0.0532204
0.171182 0.104125 0.0607475
0.154712 0.118083 0.0767082
0.155221 0.118083 0.0761775
0.171182 0.118083 0.0649008
0.155221 0.120445 0.0767082
0.157315 0.134044 0.0767082
0.171182 0.134044 0.0650547
0.179961 0.118083 0.0607475
0.187143 0.118083 0.0573092
0.203103 0.118083 0.047385
0.179346 0.134044 0.0607475
0.187143 0.134044 0.0567017
0.203103 0.134044 0.0466019
0.140404 0.0861616 0.0926689
0.143315 0.102122 0.0926689
0.146346 0.118083 0.0926689
0.149377 0.134044 0.0926689
0.155221 0.134044 0.0797405
0.142009 0.118083 0.10863
0.144814 0.134044 0.10863
0.164326 0.165965 0.0607475
0.171182 0.1513 0.0607475
0.171182 0.165965 0.0521165
0.157196 0.150004 0.0767082
0.171182 0.150004 0.0613323
0.15477 0.165965 0.0767082
0.155221 0.163663 0.0767082
0.155221 0.165965 0.0757937
0.171965 0.150004 0.0607475
0.187143 0.150004 0.0512465
0.157119 0.181926 0.0607475
0.15067 0.197887 0.0607475
0.155221 0.186274 0.0607475
0.151458 0.181926 0.0767082
0.155221 0.181926 0.0656031
0.147069 0.197887 0.0767082
0.15033 0.150004 0.0926689
0.155221 0.150004 0.080342
0.148782 0.165965 0.0926689
0.145383 0.150004 0.10863
0.14324 0.165965 0.10863
0.146013 0.181926 0.0926689
0.142476 0.197887 0.0926689
0.139536 0.181926 0.10863
0.0594569 -0.0570624 0.140551
0.0680938 -0.0415241 0.140551
0.0754177 -0.0415241 0.134873
0.0727099 -0.0255634 0.140551
0.0754177 -0.0255634 0.138322
0.0745109 -0.0096027 0.140551
0.0754177 -0.0096027 0.139738
0.0747404 0.00635806 0.140551
0.0754177 0.00635806 0.139884
0.0275355 -0.0415241 0.152577
0.0434963 -0.0415241 0.150626
0.0275355 -0.0255634 0.154787
0.0434963 -0.0255634 0.152771
0.0594569 -0.0415241 0.14558
0.0594569 -0.0255634 0.14843
0.0275355 -0.0115246 0.156512
0.030278 -0.0096027 0.156512
0.0434963 -0.0096027 0.15526
0.0434963 -0.000459291 0.156512
0.0275355 -0.0096027 0.15668
0.0275355 0.00635806 0.157426
0.0434963 0.00635806 0.157129
0.0594569 -0.0096027 0.150374
0.0465091 0.00635806 0.156512
0.0594569 0.00635806 0.151791
0.0853345 -0.0415241 0.12459
0.0913784 -0.0415241 0.116823
0.0882399 -0.0255634 0.12459
0.0913784 -0.0255634 0.119973
0.0891298 -0.0096027 0.12459
0.0913784 -0.0096027 0.121292
0.0890982 0.00635806 0.12459
0.0913784 0.00635806 0.121523
0.0750196 0.0223188 0.140551
0.0754177 0.0223188 0.140202
0.0754177 0.0235308 0.140551
0.0398391 0.0223188 0.156512
0.0434963 0.0159291 0.156512
0.0434963 0.0223188 0.15604
0.0434963 0.0289104 0.156512
0.0275355 0.0223188 0.157883
0.0275355 0.0382795 0.161143
0.0434963 0.0382795 0.158001
0.0594569 0.0223188 0.151054
0.0506824 0.0382795 0.156512
0.0594569 0.0382795 0.15422
0.0754177 0.0382795 0.147696
0.0275355 0.0542401 0.167041
0.0434963 0.0542401 0.166224
0.0275355 0.0664248 0.172472
0.0434963 0.065435 0.172472
0.0594569 0.042918 0.156512
0.0754177 0.0526862 0.156512
0.0594569 0.0542401 0.163573
0.0754177 0.0542401 0.157456
0.0552998 0.0702009 0.172472
0.0594569 0.0702009 0.170962
0.0754177 0.0702009 0.164112
0.0911797 0.0223188 0.12459
0.0913784 0.0223188 0.124363
0.0913784 0.0227352 0.12459
0.104128 0.0382795 0.12459
0.107339 0.0382795 0.120947
0.0863879 0.0382795 0.140551
0.0913784 0.0382795 0.136609
0.107339 0.0419207 0.12459
0.0913784 0.043364 0.140551
0.0997358 0.0542401 0.140551
0.107339 0.0542401 0.133465
0.107339 0.0690739 0.140551
0.115568 0.0542401 0.12459
0.1233 0.0542401 0.113951
0.122524 0.0702009 0.12459
0.1233 0.0702009 0.123593
0.107864 0.0702009 0.140551
0.0771924 0.0542401 0.156512
0.0913784 0.0542401 0.147475
0.0883915 0.0702009 0.156512
0.0913784 0.0702009 0.154317
0.107339 0.0702009 0.141043
